0.404069, 0.008608, 0.474367
0.402312, 0.008001, 0.480393
0.396410, 0.004174, 0.407062
0.399094, 0.018358, 0.464845
0.421689, 0.024440, 0.494635
0.407621, 0.024989, 0.523255
0.370563, 0.056362, 0.385081
0.415888, 0.038898, 0.396751
0.356330, 0.059582, 0.440679
0.422364, 0.024936, 0.377300
0.412187, 0.014504, 0.370160
0.385325, 0.039274, 0.469087
0.408951, -0.003091, 0.443818
0.416256, 0.031262, 0.468860
0.412745, 0.029175, 0.485512
0.413147, 0.017224, 0.510198
0.403865, 0.009189, 0.406652
0.407599, -0.004494, 0.415661
0.405175, -0.003116, 0.438951
0.407167, -0.005236, 0.424626
0.421181, 0.031986, 0.492725
0.412713, 0.032638, 0.395979
0.111211, 0.016656, 0.085544
-0.001107, 0.004273, -0.101269
0.035336, -0.012351, 0.119755
0.160876, 0.041363, 0.119874
0.031180, -0.010329, 0.117437
0.039155, 0.091474, 0.214717
0.010360, 0.013011, 0.132185
0.091841, 0.091141, 0.138738
0.100695, 0.090425, 0.149875
0.158166, 0.085898, 0.198678
0.261563, 0.131988, 0.124946
0.308033, 0.129956, 0.128376
0.287480, 0.131039, 0.220235
0.301425, 0.123811, 0.231261
0.297550, 0.132850, 0.203694
0.248173, 0.124905, -0.080404
0.275352, 0.127853, 0.236560
0.266281, 0.139192, 0.179517
0.276259, 0.127585, 0.105096
0.087916, 0.072977, -0.065309
0.013571, 0.085590, 0.173532
0.056111, 0.026137, 0.133001
0.121140, 0.029213, 0.091124
0.113496, 0.088734, 0.069579
0.031697, 0.017182, 0.105743
-0.093208, 0.020427, 0.124113
0.170250, 0.055493, 0.116580
0.099267, 0.088656, 0.110275
0.045568, 0.060121, 0.147096
0.101878, 0.091508, 0.114276
0.036653, 0.050490, 0.141631
0.099106, 0.087848, 0.110970
0.105317, 0.089372, 0.119298
0.040991, 0.011875, 0.126274
0.266943, 0.082431, -0.022413
0.230428, 0.075315, 0.215822
0.231308, 0.103996, 0.114080
-0.164195, -0.107130, -1.697140
0.172552, 0.005517, 0.210786
0.229229, 0.135907, 0.059152
0.306855, 0.122796, 0.121687
0.334234, 0.022108, 0.284896
0.141036, 0.071153, 0.052042
0.156709, 0.068247, 0.068699
0.142092, 0.078932, 0.025466
0.148643, 0.074002, 0.042811
0.233867, 0.098186, 0.213034
0.253225, 0.126959, 0.152537
0.115773, 0.080249, -0.020103
0.226310, 0.121827, 0.098539
0.253059, 0.145387, 0.121993
0.124546, 0.083356, -0.005090
0.183243, 0.060467, 0.134399
0.288169, 0.148187, 0.060006
0.257060, 0.067900, 0.131241
0.208424, 0.082207, 0.143716
0.339601, 0.044171, 0.421449
0.352117, 0.055667, 0.383154
0.392115, 0.044487, 0.373355
0.393248, 0.044486, 0.371732
0.352043, 0.059078, 0.385230
0.381591, 0.034576, 0.402571
0.389933, 0.045016, 0.377728
0.372182, 0.059723, 0.460403
0.222602, 0.119747, -0.038182
0.135308, 0.081627, -0.071763
0.211589, 0.125268, -0.129759
0.211424, -0.081846, -0.150471
0.256906, -0.027592, -0.005632
0.289483, 0.127318, -0.020917
0.339265, 0.081024, -0.031926
0.294187, 0.021901, 0.314680
0.179880, -0.061115, -0.087684
0.109991, 0.014985, -0.184820
0.287984, 0.128665, 0.220197
0.338265, 0.028959, 0.293500
0.336408, 0.101874, 0.250840
0.310178, 0.129740, 0.199588
0.311527, 0.130080, 0.236665
0.306032, 0.133404, 0.216009
0.367039, 0.057405, 0.458628
0.402274, 0.012301, 0.401559
0.391855, 0.013147, 0.420229
0.017887, 0.067018, 0.155894
0.091440, 0.089154, 0.065919
0.040283, 0.007353, 0.115036
0.054068, 0.088939, 0.168209
0.048850, 0.091121, 0.163786
0.021825, 0.095329, 0.140170
0.118088, 0.086386, 0.124540
0.060433, 0.073261, 0.126825
0.112386, 0.071898, 0.103669
0.026586, 0.081225, 0.158692
-0.025133, 0.014687, 0.136020
0.034534, -0.015025, 0.110091
0.354283, 0.021312, 0.037174
0.298512, 0.108922, 0.173295
0.332805, 0.066306, 0.293426
0.297601, 0.132263, 0.097501
0.237994, 0.070697, 0.132314
0.263400, 0.064667, 0.111860
0.146917, -0.026987, -0.071930
0.090736, 0.029017, -0.259128
0.241594, 0.097248, 0.013938
0.277873, 0.057154, 0.230588
0.368177, 0.053573, 0.510676
0.378393, 0.061104, 0.496396
0.227080, 0.046753, 0.260605
0.083095, -0.017248, 0.100630
0.168705, 0.014021, 0.180142
0.117174, 0.038311, 0.137969
0.315072, 0.074567, -0.005698
0.283722, 0.046708, 0.279924
0.162913, 0.084263, 0.003656
0.251677, 0.131870, 0.090846
0.171116, -0.053859, -0.032357
0.094843, 0.028610, 0.114719
0.034900, 0.015017, 0.098828
0.029202, 0.051213, 0.135543
0.070424, 0.088751, 0.081502
0.103325, 0.091021, 0.119821
0.115054, 0.091401, 0.149268
0.072813, 0.037705, 0.007848
0.118298, 0.090151, 0.115865
0.058882, 0.023548, -0.014440
0.163841, 0.049132, 0.204417
0.137295, 0.087449, 0.181451
-0.111834, 0.012689, -0.345281
0.130290, 0.060698, 0.161389
0.390024, 0.050540, 0.392285
0.391858, 0.001702, 0.388821
0.379181, 0.037210, 0.474029
0.387046, 0.045500, 0.411086
0.410113, 0.003541, 0.422519
0.398776, 0.019908, 0.479853
0.406188, -0.006079, 0.417510
0.356596, 0.088058, 0.437856
0.362994, 0.054683, 0.494569
0.406789, 0.033340, 0.379082
0.390299, 0.035504, 0.410289
0.412948, 0.028616, 0.391269
0.392831, -0.008548, 0.386710
0.390217, 0.000049, 0.383390
0.402558, -0.007701, 0.450383
0.376095, 0.054031, 0.551676
0.362741, 0.058820, 0.513167
0.391479, 0.046874, 0.406823
0.383542, 0.046704, 0.417078
0.403280, 0.030456, 0.512322
0.427302, 0.001648, 0.491747
0.415475, 0.024676, 0.509041
0.413201, 0.030312, 0.518996
0.384985, 0.036542, 0.410430
0.373242, 0.055247, 0.490592
0.374731, 0.035109, 0.416314
0.402730, 0.005638, 0.480482
0.416774, 0.017304, 0.490609
0.412108, 0.019811, 0.494811
0.416915, 0.008736, 0.472757
0.382250, 0.053467, 0.386833
0.396590, 0.031070, 0.441514
0.391543, 0.005728, 0.399460
0.419308, 0.039454, 0.479819
0.430882, 0.037741, 0.470399
0.421205, 0.048703, 0.492112
0.417717, 0.034224, 0.479486
0.419841, 0.043086, 0.487322
0.410394, 0.007764, 0.468365
0.382796, 0.056128, 0.508575
0.418828, 0.038540, 0.480737
0.402719, 0.048681, 0.473332
0.387410, 0.012258, 0.432552
0.376950, 0.019952, 0.453615
0.403753, -0.001913, 0.421843
0.388824, 0.051774, 0.395220
0.382264, 0.048471, 0.384701
0.384376, 0.053404, 0.389118
0.369278, 0.069284, 0.331586
0.389743, 0.051355, 0.383499
0.314126, 0.131954, 0.199527
0.384286, 0.038672, 0.400968
0.126111, 0.091282, 0.107571
0.036677, 0.076616, 0.145843
0.161126, 0.061925, 0.114261
0.079024, 0.090169, 0.066322
0.113407, 0.088862, 0.071258
0.161774, 0.083108, 0.144750
0.104309, 0.048041, 0.128412
0.131146, 0.089371, 0.122248
0.056927, 0.001161, -0.036820
0.107966, 0.094483, 0.108791
0.086856, 0.023274, 0.066982
0.070867, 0.033557, 0.010257
0.144217, 0.079804, 0.184467
0.088732, 0.029965, 0.047072
0.041420, -0.002067, 0.114850
0.101432, 0.090908, 0.115150
0.073877, 0.071987, 0.113010
0.016724, 0.088507, 0.161801
0.054906, 0.083621, 0.127377
0.066982, -0.015054, 0.131133
0.047665, 0.025710, 0.134269
0.050970, 0.000254, 0.134916
0.037197, -0.016222, 0.131913
0.043200, 0.005877, 0.133115
0.060063, 0.005340, 0.138506
0.074382, 0.113264, 0.157599
0.082761, 0.112545, 0.180296
0.055668, -0.008506, 0.128476
0.041964, -0.011853, 0.131977
0.035828, 0.053447, 0.142895
0.234568, 0.051559, 0.293510
0.050804, 0.007914, 0.126455
0.238599, 0.051382, 0.288598
0.224153, 0.051223, 0.311243
0.252116, 0.063364, 0.260735
0.015740, 0.119348, 0.171625
0.416893, 0.036266, 0.487458
0.392485, 0.037615, 0.464305
0.402503, 0.020718, 0.473189
0.359171, 0.060030, 0.444279
0.422696, 0.027957, 0.460394
0.391635, 0.054702, 0.389932
0.403134, 0.063715, 0.480189
0.392054, 0.054884, 0.389074
0.442158, 0.039088, 0.459021
0.421225, 0.020796, 0.456220
0.419332, 0.017188, 0.484912
0.374610, 0.055533, 0.471070
0.420005, 0.026382, 0.474517
0.385196, 0.037824, 0.478668
0.429646, 0.028944, 0.458811
0.367429, 0.055029, 0.440557
0.401798, 0.051273, 0.433335
0.414254, 0.025831, 0.470315
0.367793, 0.054552, 0.509018
0.379411, 0.057114, 0.511195
0.212231, 0.021391, 0.248686
0.093768, 0.000940, 0.104226
0.056300, 0.062722, 0.137519
0.068148, 0.021629, 0.113883
0.075058, -0.033046, 0.035527
0.038669, -0.041422, 0.032231
0.072210, 0.001246, 0.145542
0.078944, 0.025294, 0.114600
0.053338, 0.024613, 0.122622
0.058741, 0.009946, 0.130489
0.066014, 0.082144, 0.135509
0.059101, 0.073787, 0.142122
0.084168, 0.111712, 0.161212
0.072194, 0.022376, 0.121903
0.056379, 0.004843, 0.135618
0.074060, 0.031857, 0.112767
0.092206, 0.024533, 0.131852
0.071970, 0.083400, -0.123131
0.082542, 0.031779, 0.127155
0.107961, 0.023644, 0.158126
0.072993, -0.055521, -0.061122
0.379585, 0.039190, 0.478606
0.406003, 0.008395, 0.472434
0.422582, -0.006118, 0.474446
0.418824, 0.002958, 0.496804
0.424646, 0.008952, 0.523035
0.420710, 0.004082, 0.515824
0.415803, -0.004100, 0.492749
0.415161, 0.030798, 0.530222
0.418690, 0.001330, 0.509290
0.422432, 0.015686, 0.520507
0.425374, 0.040474, 0.528567
0.387870, 0.048437, 0.385395
0.410338, 0.017176, 0.399377
0.405316, 0.036844, 0.445357
0.418655, 0.042126, 0.519883
0.406681, 0.010669, 0.507804
0.417392, 0.000692, 0.509775
0.399642, 0.000478, 0.428657
0.407567, 0.021464, 0.468871
0.378137, 0.039138, 0.493000
0.384178, 0.047829, 0.383265
0.419469, 0.024674, 0.521988
0.395529, 0.052169, 0.407492
0.389639, 0.035950, 0.396771
0.381231, 0.034533, 0.403167
0.425630, 0.008526, 0.509043
0.403541, 0.030725, 0.413246
0.404128, 0.004896, 0.448363
0.399723, 0.041232, 0.462996
0.422140, 0.000919, 0.463531
0.391569, 0.038591, 0.470924
0.363701, 0.054880, 0.492485
0.396178, 0.029792, 0.540719
0.403753, 0.040269, 0.530348
0.407524, 0.042227, 0.528183
0.404154, 0.040474, 0.526516
0.405710, 0.040546, 0.529153
0.405977, 0.030236, 0.530635
0.406859, 0.026007, 0.540002
0.418716, 0.009387, 0.513840
0.409109, 0.026588, 0.534364
0.407398, 0.024840, 0.534611
0.400686, 0.051685, 0.524606
0.403137, 0.025642, 0.535806
0.419938, 0.024718, 0.445810
0.392190, 0.038040, 0.405050
0.379889, 0.040056, 0.477950
0.413755, 0.004018, 0.466191
0.417239, 0.026948, 0.455462
0.361888, 0.054221, 0.466895
0.415273, 0.025786, 0.415076
0.356497, 0.058778, 0.442384
0.409691, -0.004662, 0.388031
0.420211, 0.023080, 0.478484
0.418232, 0.036392, 0.486105
0.417727, 0.038589, 0.481692
0.405171, 0.005048, 0.443650
0.413159, 0.036167, 0.391087
0.417038, 0.023689, 0.379649
0.412532, 0.031900, 0.391856
0.421687, 0.027945, 0.484801
0.424196, 0.009377, 0.510287
0.379234, 0.037273, 0.474068
0.421728, 0.022962, 0.480150
0.410234, 0.009889, 0.484804
0.420974, 0.027978, 0.480497
0.406037, -0.002600, 0.418027
0.371542, 0.055161, 0.472420
0.387807, 0.039797, 0.471554
0.379721, 0.038027, 0.478641
0.422187, 0.037660, 0.480865
0.419114, 0.037471, 0.483593
0.393227, 0.019205, 0.373975
0.411405, 0.026336, 0.492075
0.402743, 0.049346, 0.482302
0.416438, 0.026400, 0.527785
0.406955, 0.003734, 0.444367
0.418329, 0.008431, 0.471279
0.384935, 0.053837, 0.387298
0.413726, 0.034466, 0.444173
0.408512, 0.005512, 0.509918
0.420106, 0.016950, 0.458688
0.402215, -0.000104, 0.417686
0.404786, 0.004762, 0.430428
0.417519, 0.003188, 0.462960
0.407080, -0.002161, 0.426632
0.381567, 0.039897, 0.487311
0.413548, -0.000396, 0.509256
0.412953, -0.006349, 0.407809
0.392169, 0.037279, 0.461299
0.418056, 0.024880, 0.530496
0.346922, 0.043689, 0.566762
0.414116, 0.044525, 0.493276
0.408265, 0.053229, 0.482176
0.409158, 0.015224, 0.511533
0.418096, 0.050551, 0.488822
0.426832, 0.044369, 0.481115
0.403563, 0.051832, 0.490410
0.410525, 0.036584, 0.491707
0.416371, 0.020734, 0.493513
0.378847, 0.037189, 0.474385
0.419598, 0.050477, 0.487852
0.397881, 0.001848, 0.394284
0.412601, 0.041662, 0.390726
0.391680, -0.000329, 0.387348
0.406852, 0.020317, 0.376224
0.381478, 0.041063, 0.414914
0.411354, 0.022396, 0.381692
0.393918, 0.056296, 0.404257
0.388364, 0.047456, 0.382808
0.396389, 0.037392, 0.397739
0.042879, 0.057649, 0.102351
-0.138044, 0.036184, 0.099223
-0.185203, 0.064015, 0.075305
0.065644, -0.030413, 0.074777
0.264958, 0.029998, 0.329464
0.133129, 0.005885, 0.137730
0.263048, 0.030214, 0.325363
-0.011619, 0.071737, 0.204312
0.017102, 0.090718, 0.194871
0.034424, 0.092544, 0.215596
-0.101218, 0.094417, 0.175016
-0.094500, 0.009079, 0.147600
-0.102540, 0.056666, 0.130849
0.029011, 0.066140, 0.142217
0.123235, 0.000831, -0.143643
0.236975, 0.134816, 0.084472
0.264018, 0.063249, -0.051691
0.406867, -0.004860, 0.414787
0.385893, 0.042365, 0.407902
0.365015, 0.056724, 0.444640
0.376744, 0.057272, 0.409947
0.384264, 0.060431, 0.415566
0.256257, 0.128540, 0.146449
0.293209, 0.134230, 0.067417
0.255628, 0.130836, 0.098788
0.259658, 0.132044, 0.079092
0.283402, 0.140281, 0.127177
0.336617, 0.029352, 0.304765
0.219320, 0.066632, 0.258314
0.193607, 0.115772, 0.212918
0.153355, 0.087934, -0.035215
0.125515, 0.091164, -0.095404
0.205355, 0.039622, 0.220855
0.002417, -0.054618, -0.057567
0.060784, 0.050883, 0.143487
0.046449, 0.048102, -0.394309
0.300905, 0.130791, 0.240584
0.286134, 0.129697, 0.242316
0.290819, 0.126306, 0.213935
0.283280, 0.129966, 0.239027
0.306118, 0.127203, 0.253968
0.297916, 0.127357, 0.247487
0.290682, 0.125551, 0.238678
0.308366, 0.133100, 0.116509
0.300353, 0.130281, 0.223389
0.296211, 0.136291, 0.208757
0.354185, 0.125304, 0.008107
0.165642, -0.060287, -0.023155
0.233872, 0.105148, 0.104480
0.179349, -0.062874, -0.042785
0.125418, 0.058034, -0.047920
0.152170, 0.059910, 0.029837
0.243155, 0.069128, 0.134564
0.240813, 0.098560, 0.130321
0.077790, 0.059102, -0.090733
0.280539, 0.129758, 0.084550
0.303485, 0.132469, 0.037114
0.081846, 0.054453, -0.084571
0.142184, -0.060884, -0.073719
0.167190, -0.062132, -0.039752
0.334478, 0.022191, 0.283678
0.236425, 0.097865, 0.210365
0.231561, 0.107450, 0.055628
0.170943, 0.095198, 0.019733
0.224287, 0.135398, -0.011028
0.211593, 0.058248, 0.104286
0.233955, 0.103281, 0.072046
0.398428, 0.034098, 0.458469
0.399893, 0.054115, 0.385543
0.053604, 0.049423, 0.133818
0.093989, 0.030627, 0.116564
0.101132, 0.038713, 0.111580
0.063941, 0.042259, -0.061621
0.005161, 0.086805, 0.180338
-0.112575, -0.035453, 0.123215
-0.095097, 0.036513, 0.159807
-0.049435, 0.016398, 0.130442
-0.121694, 0.072978, 0.161618
0.119477, 0.053643, -0.065383
0.099580, 0.051856, -0.214127
0.206506, 0.016010, 0.243124
-0.010144, 0.189743, 0.051232
0.233204, 0.054411, 0.316045
0.128255, 0.061793, -0.065047
0.067534, 0.159596, 0.119948
0.137078, 0.096250, 0.182955
0.167924, 0.047289, 0.133393
-0.067507, -0.039865, 0.171969
-0.066688, -0.040713, 0.173430
0.052709, 0.027372, 0.118778
-0.001187, 0.091861, 0.197544
0.111449, 0.099364, 0.170221
-0.552762, 0.022569, 0.376263
-0.580293, 0.025306, 0.318698
-7.049154, -0.316078, 1.538878
-3.369092, 1.108849, 0.132503
-0.098789, 0.065696, 0.090061
-0.103548, 0.027065, 0.079456
-0.045676, 0.072040, 0.106297
-2.235811, 0.782982, -0.456325
-2.486494, 0.592546, -0.408146
-0.095672, 0.066093, 0.092508
-0.166233, 0.091625, 0.099287
-1.881963, 0.406475, -0.634200
-4.487655, 1.277393, -0.164126
-3.600024, 1.312780, -0.086590
0.301160, 0.126257, 0.040707
0.243600, 0.069218, 0.171546
0.385545, 0.037732, 0.389025
0.380639, 0.043514, 0.475779
0.352173, 0.058006, 0.406622
0.200854, 0.068726, 0.238680
0.180124, 0.071086, -0.004526
0.076161, 0.094875, -0.045227
0.023988, 0.055494, 0.149993
-0.021343, 0.156617, 0.017960
0.095272, 0.090665, 0.119131
0.087239, 0.090316, 0.212349
0.177491, 0.031033, 0.216094
-0.149931, -0.044282, 0.087005
-0.025782, 0.076797, 0.146345
-0.088550, -0.003108, 0.160955
0.113562, -0.035582, 0.018338
0.078598, 0.066994, 0.110408
0.041307, 0.089893, 0.178681
0.088422, 0.081978, 0.105074
0.077472, 0.088666, 0.101660
-0.007928, 0.021163, 0.147693
0.143757, 0.020142, 0.131304
0.349521, 0.057965, 0.378369
0.394561, 0.043182, 0.380958
0.356055, 0.056247, 0.408430
0.359485, 0.058037, 0.413973
0.399655, 0.048632, 0.376200
0.359951, 0.056516, 0.435246
0.399463, 0.045071, 0.370275
0.353968, 0.056805, 0.381353
0.292408, 0.095081, 0.293710
0.384954, 0.037874, 0.408820
0.310704, 0.126315, 0.225344
0.367921, 0.055563, 0.383869
0.361795, 0.053640, 0.449498
0.305698, 0.130978, 0.201509
0.352217, 0.055479, 0.388349
0.388656, 0.044226, 0.378015
0.286126, 0.132033, 0.187253
0.398555, 0.043622, 0.372340
0.400510, 0.045389, 0.368131
0.306107, 0.130773, 0.229858
0.314130, 0.129110, 0.233691
0.407210, 0.045343, 0.398098
0.386894, 0.036615, 0.408850
0.393484, 0.023014, 0.371103
0.393133, 0.054286, 0.401740
0.340106, 0.033373, 0.264627
0.262448, 0.127993, 0.188131
0.237977, 0.132070, 0.191792
0.109237, 0.083489, 0.235458
0.098692, 0.080561, 0.123091
0.117100, 0.056416, 0.144733
0.028971, 0.068368, -0.139165
-0.140395, -0.004607, 0.100237
0.039864, -0.006228, 0.114251
0.076667, 0.084728, 0.118882
-0.022155, 0.020419, 0.137787
0.027326, 0.074053, 0.133789
0.058257, 0.060048, 0.135111
0.182331, 0.047816, 0.229343
0.024449, 0.077185, 0.160202
0.010514, 0.065628, 0.167856
0.096353, 0.077091, 0.091637
0.067700, 0.083111, 0.071931
-0.059829, 0.008036, 0.138202
0.060298, 0.093023, 0.059941
-0.021215, 0.001588, 0.128553
0.159550, 0.041788, 0.119420
-0.236910, -0.047861, 0.035481
0.077372, 0.074730, 0.151583
-0.259800, 0.041653, 0.039274
0.005342, 0.055499, 0.154466
0.120231, 0.096154, 0.178980
0.036735, 0.091541, 0.210344
0.108217, 0.093151, 0.224752
0.071314, 0.082769, 0.220797
0.405281, -0.000892, 0.440225
0.411352, 0.044325, 0.537984
0.404865, 0.040131, 0.419710
0.395717, 0.014385, 0.442695
0.402545, -0.002068, 0.452897
0.407165, -0.002452, 0.444158
0.421569, 0.031989, 0.601358
0.407550, 0.027861, 0.603497
0.422991, 0.026953, 0.599432
0.446776, 0.052195, 0.593885
0.281176, 0.024395, 0.615546
0.400891, 0.026580, 0.566492
0.814971, 0.046718, 0.378499
0.361855, 0.053634, 0.615640
0.359213, 0.051970, 0.617042
0.410249, 0.003439, 0.423030
0.367520, 0.059449, 0.448229
0.418933, 0.008686, 0.437591
0.418851, 0.038891, 0.478653
0.437429, 0.036473, 0.473487
0.396062, 0.053580, 0.387722
0.395026, 0.006820, 0.460150
0.406406, 0.037108, 0.444081
0.386003, 0.039204, 0.480417
0.397400, 0.025830, 0.547284
0.412624, 0.004417, 0.531558
0.402498, -0.001329, 0.450511
0.363867, 0.024757, 0.555144
0.356963, 0.059042, 0.441879
0.421148, 0.043726, 0.536040
0.394665, 0.002219, 0.412686
0.411197, 0.038962, 0.538675
0.420739, 0.043404, 0.513528
0.422746, 0.046090, 0.520376
0.415440, 0.043878, 0.510297
0.415154, 0.004182, 0.504310
0.410790, 0.053236, 0.512817
0.418044, 0.030870, 0.517429
0.425488, 0.018723, 0.510244
0.410112, 0.004999, 0.512157
0.411968, 0.052413, 0.516221
0.402670, 0.052469, 0.521893
0.416065, 0.030919, 0.529689
0.422550, 0.023723, 0.510675
0.379962, 0.056752, 0.618063
0.373791, 0.049692, 0.631844
0.408269, 0.040494, 0.631807
0.427595, 0.026854, 0.631853
0.415560, 0.005085, 0.529638
0.403950, 0.030266, 0.527369
0.430619, 0.025725, 0.515362
0.377929, 0.039210, 0.474514
0.375639, 0.056778, 0.501059
0.399287, 0.051209, 0.465606
0.417068, 0.047712, 0.476324
0.412429, 0.034325, 0.493745
0.407997, 0.027883, 0.497119
0.421422, 0.021447, 0.469476
0.406199, 0.012425, 0.440296
0.410907, 0.027349, 0.399563
0.422546, 0.014921, 0.481668
0.421227, 0.024605, 0.464281
0.415988, 0.026248, 0.476702
0.426510, 0.016458, 0.482600
0.425414, 0.025920, 0.373890
0.410108, 0.002181, 0.436628
0.355115, 0.052641, 0.461242
0.358087, 0.054522, 0.446549
0.362327, 0.053951, 0.448435
0.379285, 0.059340, 0.404145
0.416030, 0.037229, 0.393903
0.375952, 0.054611, 0.441282
0.412165, 0.038737, 0.386969
0.389189, 0.048231, 0.408970
0.375116, 0.056075, 0.428919
0.387105, 0.054383, 0.423191
0.389809, 0.053958, 0.393424
0.391678, 0.043175, 0.405587
0.384523, 0.057835, 0.393253
0.394098, 0.050483, 0.389687
0.393522, 0.051740, 0.388105
0.385145, 0.057983, 0.392272
0.408431, 0.034060, 0.375447
0.366175, 0.055720, 0.435385
0.404574, 0.010106, 0.478044
0.412109, 0.033896, 0.446517
0.392539, 0.056750, 0.381962
0.416234, 0.052749, 0.531345
0.413608, 0.004387, 0.513195
0.403919, 0.006119, 0.516942
0.413492, 0.030549, 0.528338
0.400095, 0.054948, 0.520575
0.390350, 0.059163, 0.528575
0.388896, -0.000468, 0.389036
0.356892, 0.054136, 0.441222
0.415953, 0.024720, 0.527329
0.390269, 0.055269, 0.396127
0.386170, 0.038301, 0.408903
0.418568, 0.002407, 0.509860
0.419677, 0.004476, 0.524387
0.413291, 0.030874, 0.538463
0.424592, 0.042033, 0.528266
0.130096, 0.088475, 0.113182
0.163450, 0.086750, 0.150081
0.128983, 0.061474, 0.095430
0.105517, 0.086286, 0.115661
0.120114, 0.040548, 0.084716
0.127544, 0.061389, 0.094140
0.121661, 0.091015, 0.130486
0.097575, 0.085932, 0.108799
-0.041295, 0.116830, -0.247961
0.123988, 0.089257, 0.169786
0.161493, 0.089446, 0.143686
0.087562, 0.083202, 0.139430
0.091673, 0.090388, 0.213204
0.058577, 0.039948, -0.014922
0.401607, -0.001133, 0.400957
0.416994, 0.034436, 0.462857
0.403642, 0.050652, 0.486286
0.415434, 0.023410, 0.472906
0.418941, 0.031833, 0.459546
0.410766, 0.010099, 0.458988
0.389374, 0.043735, 0.408971
0.364262, 0.054994, 0.494057
0.385350, 0.055902, 0.386067
0.414537, 0.037564, 0.474656
0.403543, 0.010025, 0.404208
0.375923, 0.051598, 0.474998
0.384257, 0.036179, 0.409787
0.396505, 0.038248, 0.454172
0.424565, 0.018509, 0.454843
0.416100, 0.047152, 0.469060
0.412773, 0.023325, 0.467308
0.394733, 0.054979, 0.510667
0.365716, 0.055276, 0.504423
0.360732, 0.055022, 0.470137
0.416259, 0.023787, 0.470503
0.418051, 0.049795, 0.494217
0.364570, 0.054524, 0.484313
0.421123, 0.027637, 0.462187
0.367289, 0.055992, 0.502488
0.380575, 0.057626, 0.510133
0.146916, 0.038956, -0.109244
0.146157, 0.065488, -0.023068
0.382547, 0.052740, 0.519365
0.364002, 0.055376, 0.513816
0.400840, 0.053713, 0.512790
0.414627, 0.020426, 0.459986
0.407385, 0.053806, 0.424696
0.405066, 0.047900, 0.387050
0.419146, 0.041009, 0.481240
-0.030909, 0.006920, 0.132734
0.077076, 0.071234, 0.159054
0.060070, 0.075403, 0.138131
0.035776, 0.072782, 0.146267
0.017136, 0.067487, 0.155388
0.163842, 0.041410, 0.121148
0.123957, 0.023816, 0.152804
0.117472, 0.086360, 0.155043
0.009237, 0.027712, 0.113004
0.025003, 0.027432, 0.100894
-0.000360, 0.019553, 0.105318
-0.003948, 0.013932, 0.129526
0.054619, 0.053699, 0.142129
0.113246, 0.087672, 0.117768
-0.025209, 0.084276, 0.175490
0.050820, 0.017897, 0.112284
0.047720, -0.002923, 0.119918
0.009443, 0.059014, 0.164238
-0.037484, 0.063123, 0.187379
-0.041446, 0.049413, 0.140938
-0.004409, 0.054676, 0.160508
-0.020068, 0.050975, 0.152961
-0.043899, 0.051712, 0.179618
0.000647, 0.061297, 0.172110
0.421148, 0.021681, 0.442976
0.386774, 0.039642, 0.398442
0.391183, 0.006559, 0.372314
0.413862, 0.052083, 0.398416
0.405831, 0.027744, 0.398290
0.361983, 0.054434, 0.492087
0.361389, 0.054311, 0.495983
-0.031132, 0.009703, 0.134913
0.073073, 0.083656, 0.087473
0.036890, 0.000866, 0.120648
0.090428, 0.007487, 0.107448
0.079837, 0.010956, 0.083996
-0.136386, 0.081608, 0.109377
-4.628547, 0.753622, 0.039690
-1.948910, 0.734339, -0.246072
-0.082192, 0.034578, 0.160098
-2.731224, 1.003507, 1.027260
-2.761522, 1.144666, 0.943933
0.401371, 0.053981, 0.511109
0.401749, 0.053352, 0.509507
0.368444, 0.057765, 0.479685
0.415439, 0.002059, 0.507471
0.361087, 0.055492, 0.480666
0.361083, 0.054332, 0.503246
0.342650, 0.079966, 0.064829
0.338284, -0.011359, 0.235061
0.333500, 0.021915, 0.288041
0.338951, 0.118348, 0.232009
0.318794, 0.134187, 0.190553
0.312531, 0.132913, 0.180243
0.053647, 0.026192, -0.093188
0.246037, 0.040186, 0.325321
0.380007, 0.037475, 0.473375
0.398266, 0.005333, 0.440753
0.400026, 0.001154, 0.403515
0.395270, 0.020034, 0.454072
0.340942, 0.071893, 0.417691
0.387900, 0.034806, 0.393172
-4.136697, 0.382132, 2.076590
-3.506332, 0.913476, 1.101820
-3.723854, 0.545513, 6.109357
-3.146146, 1.098379, 1.793706
-3.249259, -0.418854, 2.900505
-5.698880, 0.221209, 5.887952
-3.178245, 1.181139, 1.033396
-3.827548, 0.912937, 1.535767
-6.079058, 0.849488, 6.332383
-6.750346, 0.417265, 10.880263
-3.647920, 0.793765, 1.545652
-3.230446, 0.876978, 1.127091
-3.266125, 0.904985, 1.102366
0.229028, 0.133497, 0.031382
0.387503, 0.036630, 0.405269
0.351532, 0.089444, 0.367897
0.370455, 0.054370, 0.467587
0.355390, 0.052745, 0.466506
0.389723, 0.046015, 0.407701
0.402247, 0.000262, 0.395227
0.388786, 0.056510, 0.431223
0.410092, 0.003664, 0.421822
0.371275, 0.054787, 0.466416
0.391374, 0.048006, 0.405920
0.391703, 0.034603, 0.408893
0.365293, 0.054840, 0.385250
0.348134, 0.062406, 0.370293
0.393425, 0.054172, 0.400830
0.382010, 0.046692, 0.401277
0.211856, 0.075283, 0.139368
0.172791, 0.006280, 0.202450
-0.025204, 0.018927, 0.155290
-0.013535, 0.000377, 0.140542
0.043420, 0.088308, 0.166377
-0.008139, 0.039214, 0.167898
-0.032068, 0.033464, 0.152631
0.089554, 0.158627, 0.119763
0.049868, 0.063864, 0.128753
0.072450, 0.032331, 0.122889
0.057013, 0.026706, 0.119430
0.118278, 0.006835, 0.145709
0.110062, -0.008325, 0.118508
0.228659, 0.024556, 0.285113
0.081569, 0.066517, 0.113935
0.234647, 0.023092, 0.292343
0.134363, 0.088196, -0.068521
0.380994, 0.053563, 0.449126
0.360253, 0.054309, 0.477924
0.366604, 0.055026, 0.475427
0.358381, 0.062049, 0.404330
0.414193, 0.034160, 0.388357
0.394825, 0.003147, 0.388711
0.416244, 0.017345, 0.386323
0.408346, 0.018057, 0.368728
0.417685, 0.041911, 0.408805
0.408412, -0.001260, 0.381824
0.379235, 0.057650, 0.447904
0.369905, 0.055625, 0.464614
0.385005, 0.058799, 0.427012
0.358733, 0.054494, 0.463350
0.363844, 0.052518, 0.473530
0.351867, 0.049452, 0.490984
0.098290, 0.071896, 0.107851
0.082712, 0.065186, 0.099966
-0.063955, 0.036653, 0.126087
0.078397, 0.038372, 0.093519
0.126954, -0.006734, 0.112842
0.075869, 0.090285, 0.171750
0.214228, 0.086248, 0.214197
0.228944, 0.130880, 0.192414
0.310919, 0.083783, 0.298581
0.237108, 0.106911, 0.171061
0.220935, 0.135296, 0.143284
0.344195, -0.002284, 0.114411
0.237877, 0.100106, 0.202931
0.254765, 0.134907, 0.146409
0.249316, 0.133612, 0.144492
0.199805, -0.051106, 0.097780
0.234305, 0.126854, 0.189105
0.224708, -0.069466, -0.080716
0.239381, 0.103553, 0.184280
0.310693, 0.128196, 0.190835
0.271050, 0.125291, 0.145401
0.185348, -0.068991, -0.115722
0.112866, -0.003432, 0.029569
0.227137, -0.068068, -0.075609
0.205182, 0.093177, 0.030979
0.251137, 0.070634, 0.098613
0.294973, 0.054976, -0.027106
0.192656, 0.097041, 0.164548
0.284970, 0.130126, -0.030130
-0.314918, -0.021865, -1.745519
0.116564, 0.013600, -0.239229
0.125523, 0.033236, -0.133798
0.257168, -0.040130, 0.054534
0.417112, 0.017756, 0.457018
0.409033, 0.010366, 0.460838
0.392111, 0.035332, 0.404086
0.360100, 0.054264, 0.495293
0.412657, 0.027419, 0.407176
0.394700, 0.054957, 0.405685
0.417138, 0.030671, 0.450971
0.412569, 0.027858, 0.454549
0.404386, 0.019645, 0.370562
0.420336, 0.054129, 0.464158
0.370275, 0.060734, 0.447292
0.401339, 0.000701, 0.393785
0.407787, 0.030433, 0.422625
0.408931, 0.049875, 0.389383
0.387015, 0.048906, 0.400325
0.405762, 0.000138, 0.413458
0.335639, 0.029447, 0.309280
0.304261, 0.033456, 0.446814
0.349185, 0.062982, 0.367074
0.339913, 0.136683, 0.076731
0.224065, 0.055105, 0.277292
-0.014494, 0.061371, 0.160986
-0.056060, 0.037105, 0.147089
-0.082386, 0.041730, 0.132642
-0.049003, -0.022922, 0.146231
0.064005, 0.015409, 0.200140
-0.112590, 0.008837, 0.115044
-0.087413, -0.027517, 0.117794
0.054535, 0.107270, 0.187640
0.036967, 0.110303, 0.187974
0.033294, 0.086782, 0.162892
-0.065270, 0.028328, 0.141146
-0.015643, -0.041038, 0.162875
-0.032864, 0.064539, 0.147282
-0.026131, -0.021690, 0.201132
-0.093983, -0.033198, 0.112720
-0.006166, 0.068083, 0.173064
-0.053824, 0.066241, 0.143691
-0.037283, 0.056022, 0.152959
-0.016497, 0.065388, 0.183063
-0.060098, 0.038849, 0.166084
0.020156, 0.086757, 0.210339
0.019360, 0.089251, 0.217869
-0.024658, 0.066002, 0.170841
-0.036512, 0.079463, 0.173999
-0.071338, 0.042339, 0.160702
-0.111136, -0.007304, 0.129080
-0.029152, 0.092155, 0.158189
-0.050953, 0.060165, 0.169231
-0.063500, 0.067592, 0.130649
-0.064727, 0.097880, 0.165977
-0.024308, 0.069136, 0.186348
-0.047130, 0.017379, 0.142691
-0.065923, 0.046455, 0.163847
-0.032542, 0.074141, 0.191992
-0.031393, 0.074669, 0.180652
0.003989, 0.085630, 0.181085
-0.313693, 0.000200, 0.039045
0.417610, 0.023014, 0.444824
0.379199, 0.036907, 0.475834
0.371983, 0.054337, 0.450406
0.407666, 0.036741, 0.445656
0.405413, -0.000476, 0.439681
0.410459, 0.044815, 0.475662
0.407259, 0.003368, 0.443675
0.419768, 0.021184, 0.457829
0.408213, 0.023461, 0.437704
0.405118, -0.001564, 0.452336
0.368552, 0.057288, 0.469532
0.367771, 0.055970, 0.503055
0.363039, 0.055854, 0.491895
0.373893, 0.050022, 0.486508
0.175584, 0.061282, -0.000251
0.249008, 0.064283, 0.182759
0.279534, 0.034856, 0.368867
0.249647, 0.063753, 0.256755
0.264912, 0.039803, 0.355267
0.216774, 0.015591, 0.262006
0.368229, 0.060077, 0.444089
0.390792, 0.055063, 0.409064
0.399835, 0.056657, 0.392033
0.391197, 0.052117, 0.424343
0.383174, 0.048161, 0.383620
0.373231, 0.055426, 0.504480
0.406362, 0.018880, 0.402143
0.394552, 0.064294, 0.414829
0.368487, 0.054533, 0.476996
0.396340, 0.052090, 0.404427
0.398265, 0.063698, 0.320635
0.401110, 0.019880, 0.437619
0.378738, 0.043638, 0.479621
0.377055, 0.043018, 0.482031
0.407615, 0.043859, 0.483752
0.418242, 0.024508, 0.497343
0.378764, 0.052257, 0.487983
0.402518, 0.011367, 0.511185
0.387041, 0.055301, 0.495780
0.399905, 0.052292, 0.525203
0.424387, 0.040336, 0.532333
0.405298, 0.030937, 0.538721
0.411264, 0.024941, 0.524767
0.420530, 0.023037, 0.525383
0.369964, 0.055079, 0.525862
0.394069, 0.041046, 0.408173
0.421326, 0.023653, 0.510288
0.406635, 0.055313, 0.519303
0.383682, 0.054349, 0.512706
0.421465, 0.042786, 0.509672
0.401243, 0.053108, 0.513073
0.371138, 0.054803, 0.451308
0.389074, 0.054522, 0.384253
0.396602, -0.005073, 0.387277
0.406665, -0.003291, 0.438178
0.392425, -0.006644, 0.384133
0.402619, 0.051880, 0.487409
0.403925, 0.003946, 0.420092
0.406063, 0.038377, 0.401942
0.389441, 0.015867, 0.456628
0.380934, 0.053951, 0.486022
0.415499, 0.035975, 0.409020
0.413834, -0.002617, 0.416654
0.407398, -0.004526, 0.391055
0.365861, 0.055199, 0.382007
0.393853, 0.015465, 0.371519
0.382307, 0.054784, 0.382584
0.387514, 0.019716, 0.377314
0.382355, 0.035151, 0.398344
0.361902, 0.055633, 0.459990
0.397387, 0.001521, 0.389249
0.380704, 0.053859, 0.421167
0.387461, 0.035537, 0.415166
0.391243, 0.006621, 0.526137
0.415314, 0.018731, 0.359022
0.426188, 0.045657, 0.415888
0.368100, 0.048222, 0.495954
0.419158, 0.003744, 0.517833
0.400793, -0.000209, 0.418992
0.398711, 0.033265, 0.423380
0.394334, 0.038036, 0.443664
0.397135, 0.009833, 0.484929
0.401587, 0.052949, 0.510546
0.383185, 0.053386, 0.426164
0.386144, 0.022355, 0.379959
0.417426, 0.038804, 0.484324
0.383932, 0.055583, 0.495034
0.411922, 0.036848, 0.403643
0.412336, 0.033597, 0.493532
0.402929, 0.055217, 0.479069
0.362078, 0.042290, 0.513976
0.417951, 0.040914, 0.482504
0.380297, 0.036946, 0.417576
0.402910, 0.040812, 0.513887
0.389656, 0.037213, 0.465406
0.421133, -0.012419, 0.432672
0.413722, -0.004047, 0.485636
0.408742, 0.041036, 0.515441
0.358217, 0.053633, 0.471802
0.362633, 0.055093, 0.484165
0.384558, 0.051241, 0.383439
0.410647, 0.038734, 0.491190
0.417142, 0.004210, 0.517127
0.421391, 0.040425, 0.546893
0.414111, 0.017008, 0.562436
0.411844, -0.002178, 0.528178
0.488512, 0.027643, 0.524800
0.392691, 0.045841, 0.380185
0.399794, 0.051111, 0.366119
0.386486, 0.047383, 0.404260
0.414414, 0.052303, 0.344603
0.376815, 0.035150, 0.408681
0.396263, 0.044831, 0.374874
0.416400, 0.028147, 0.407107
0.393128, 0.033177, 0.402032
0.355718, 0.058399, 0.441736
0.358652, 0.053763, 0.446575
0.400221, 0.017601, 0.411230
0.392593, 0.007091, 0.390857
0.418883, 0.030989, 0.631426
0.383034, 0.055220, 0.612407
0.410413, 0.053758, 0.571972
0.416128, 0.026392, 0.527869
0.411162, 0.053496, 0.512345
0.424482, 0.008475, 0.509109
0.415102, 0.024918, 0.532331
0.416972, 0.024897, 0.533503
0.413977, 0.024818, 0.525864
0.412975, 0.041451, 0.520689
0.413567, 0.043710, 0.519964
0.418328, 0.031366, 0.526926
0.394884, 0.003174, 0.389155
0.364112, 0.054833, 0.497025
0.368340, 0.055522, 0.499146
0.368396, 0.053849, 0.510113
0.418846, 0.025400, 0.514908
0.417070, 0.004048, 0.510662
0.418014, 0.054744, 0.533089
0.363810, 0.059464, 0.511038
0.414377, 0.024859, 0.526056
0.411234, 0.016592, 0.509202
0.415152, 0.043752, 0.510623
0.424032, 0.034773, 0.509825
0.415292, 0.030120, 0.518442
0.423617, 0.040071, 0.510440
0.438759, 0.046259, 0.499864
0.413068, 0.030442, 0.509441
0.408733, 0.030094, 0.509292
0.403489, 0.047454, 0.578788
0.403056, 0.010785, 0.615868
0.416257, 0.043425, 0.535851
0.412627, 0.052691, 0.541104
0.408202, 0.052458, 0.502853
0.405659, -0.000467, 0.408973
0.397972, 0.038290, 0.399558
0.421836, 0.047589, 0.385934
0.413852, 0.037833, 0.489856
0.400542, 0.055116, 0.510422
0.407522, 0.055540, 0.409297
0.409593, 0.041230, 0.380118
0.417548, 0.029727, 0.435804
0.391529, 0.053792, 0.404766
0.384761, -0.006309, 0.392394
0.401187, 0.038964, 0.434393
0.400056, 0.003601, 0.395563
0.409880, 0.025501, 0.447213
0.352359, 0.049389, 0.483496
0.413124, 0.020522, 0.387605
0.418561, 0.021172, 0.438822
0.405613, 0.018103, 0.370802
0.404952, 0.026908, 0.442776
0.407289, 0.004301, 0.415293
0.395900, 0.054884, 0.531171
0.415544, 0.026357, 0.537054
0.422369, 0.041685, 0.531013
0.422890, 0.023940, 0.530830
0.415702, 0.053266, 0.509946
0.419713, 0.026058, 0.511398
0.420484, 0.025128, 0.514857
0.422511, 0.034371, 0.510971
0.400175, 0.054794, 0.520867
0.408963, 0.052459, 0.514570
0.408554, 0.057084, 0.520084
0.424147, 0.024835, 0.515881
0.406188, 0.053232, 0.519806
0.380756, 0.034429, 0.413989
0.393170, 0.051806, 0.402000
0.411205, 0.024452, 0.515669
0.414491, 0.054048, 0.598618
0.404333, 0.051553, 0.587277
0.409418, 0.052820, 0.586967
0.396701, 0.044059, 0.371830
0.390937, 0.052913, 0.390215
0.392582, 0.054119, 0.385212
0.386631, 0.047324, 0.378645
0.384831, 0.051393, 0.382525
0.421458, 0.015486, 0.381529
0.393491, -0.001147, 0.383856
0.401767, -0.001885, 0.395340
0.401630, 0.003456, 0.393458
0.396955, 0.020071, 0.369440
0.408028, 0.000407, 0.409923
0.295209, 0.069940, 0.257361
0.391716, 0.053912, 0.407477
0.380797, 0.058437, 0.402720
0.390857, 0.007644, 0.392646
0.419672, 0.044487, 0.488933
0.414082, 0.030338, 0.398987
0.411966, 0.024619, 0.514938
0.408743, 0.025578, 0.408790
0.414020, 0.041670, 0.485238
0.413670, 0.039677, 0.489241
0.404715, -0.000766, 0.441661
0.405237, 0.040510, 0.493087
0.412025, 0.044100, 0.492933
0.391109, 0.049788, 0.407097
0.391913, 0.021299, 0.372227
0.391648, 0.034147, 0.505865
0.387436, 0.040094, 0.477464
0.418854, 0.025602, 0.516493
0.365106, 0.055046, 0.503646
0.386470, 0.049939, 0.380424
0.409947, 0.039668, 0.493417
0.399474, 0.052520, 0.492540
0.383490, 0.036297, 0.555957
0.406603, 0.028443, 0.539617
0.407458, 0.026529, 0.535490
0.406183, 0.024962, 0.542047
0.428118, 0.025031, 0.526837
0.411776, 0.019513, 0.536910
0.410121, 0.052960, 0.537293
0.408669, 0.005603, 0.535042
0.406675, -0.000538, 0.535192
0.418391, 0.046870, 0.598591
0.415992, 0.051152, 0.649125
0.377569, 0.052535, 0.629314
0.408844, 0.041873, 0.630123
0.370191, 0.055067, 0.619366
0.410864, 0.009992, 0.620120
0.407937, 0.052431, 0.632456
0.385112, 0.049376, 0.642314
0.363309, 0.052948, 0.650256
0.390329, 0.047730, 0.613054
0.400441, 0.043930, 0.618774
0.402730, 0.044280, 0.618666
0.433096, -0.000574, 0.596918
0.425349, 0.031109, 0.542893
0.397814, 0.007013, 0.580335
0.297512, 0.129254, 0.176618
0.336188, 0.128073, 0.220899
0.387644, 0.033952, 0.400138
0.392835, 0.047088, 0.388582
0.373916, 0.054994, 0.439762
0.410402, 0.009151, 0.403087
0.410385, 0.020312, 0.387977
0.387214, 0.049367, 0.397534
0.389753, 0.055434, 0.390150
0.279666, 0.135225, 0.191571
0.392411, 0.051350, 0.403623
0.415983, 0.016546, 0.380893
0.409879, 0.013077, 0.365627
0.403675, 0.000281, 0.384773
0.280900, 0.128558, 0.218210
0.389191, 0.053025, 0.383952
0.392100, 0.052759, 0.389872
0.389196, 0.046728, 0.400375
0.408196, 0.017003, 0.403426
0.354681, 0.060761, 0.388687
0.415318, 0.019037, 0.386720
0.384759, 0.041513, 0.408558
0.389066, 0.037294, 0.407180
0.386884, 0.035843, 0.403048
0.387969, 0.049779, 0.410604
0.380910, 0.052973, 0.396587
0.384001, 0.055332, 0.389108
0.394290, 0.053943, 0.388607
0.359004, 0.051730, 0.515427
0.417357, 0.009852, 0.369147
0.406374, 0.017930, 0.405689
0.389705, 0.021680, 0.370975
0.403886, -0.001500, 0.394134
0.389441, 0.003501, 0.378835
0.380466, 0.060559, 0.344846
0.381522, 0.036595, 0.407426
0.379031, 0.054649, 0.482768
0.388461, 0.001556, 0.390602
0.392593, -0.006317, 0.386123
0.394219, 0.033925, 0.397977
0.378775, 0.033377, 0.410152
0.404843, 0.014051, 0.428285
0.403189, 0.054882, 0.431452
0.376372, 0.055245, 0.476613
0.391171, 0.002025, 0.402500
0.389557, -0.008079, 0.383960
0.376410, 0.053427, 0.604202
0.351812, 0.041677, 0.640769
0.354597, 0.046172, 0.632621
0.371033, 0.049272, 0.645578
0.380439, 0.055451, 0.589809
0.386602, 0.054688, 0.604735
0.403132, 0.027048, 0.644792
0.360943, 0.054206, 0.659203
0.362071, 0.052607, 0.647698
0.419812, 0.039769, 0.627082
0.310759, 0.036571, 0.606325
0.363193, 0.053660, 0.515667
0.418406, 0.037866, 0.479837
0.381205, 0.054721, 0.484431
0.381158, 0.054337, 0.501040
0.412227, 0.033582, 0.484066
0.410984, 0.049416, 0.389217
0.416285, 0.002788, 0.468236
0.409516, 0.015108, 0.511426
0.420228, 0.023274, 0.478579
0.419050, 0.034143, 0.477648
0.423426, 0.019462, 0.484848
0.423484, 0.004350, 0.368735
0.353539, 0.059355, 0.398702
0.406610, 0.018410, 0.369203
0.394844, 0.047136, 0.379878
0.401911, 0.052867, 0.397747
0.406750, 0.050260, 0.355044
0.360200, 0.054066, 0.448340
0.357851, 0.054805, 0.438562
0.360836, 0.045803, 0.451757
0.405259, 0.025919, 0.630323
0.409880, 0.002333, 0.443748
0.413526, 0.024696, 0.510297
0.402628, 0.051569, 0.461597
0.411269, 0.030895, 0.510706
0.419674, 0.028405, 0.532980
0.399012, 0.049934, 0.468090
0.407782, 0.007226, 0.474678
0.424175, 0.002462, 0.523074
0.401411, 0.052539, 0.512693
0.424171, 0.034211, 0.509050
0.409924, 0.041973, 0.545722
0.358839, 0.052253, 0.580983
0.362753, 0.052147, 0.563446
0.370026, 0.055141, 0.576477
0.416458, 0.039143, 0.539558
0.362406, 0.052463, 0.611221
0.408614, -0.005626, 0.423303
0.413887, 0.053557, 0.517278
0.408899, 0.053875, 0.518924
0.400545, 0.053113, 0.465148
0.414434, 0.024828, 0.530252
0.383885, 0.054923, 0.482479
0.420721, -0.005808, 0.476247
0.407019, 0.060176, 0.537527
0.398952, 0.019964, 0.441015
0.415866, 0.020820, 0.494369
0.424394, 0.023163, 0.523023
0.416575, 0.024707, 0.522473
0.417341, -0.004609, 0.491347
0.419798, -0.005496, 0.480177
0.417450, 0.004810, 0.525926
0.415204, 0.004664, 0.518135
0.412647, 0.038675, 0.386044
0.409556, -0.007100, 0.412132
0.388615, 0.045996, 0.409333
0.386713, 0.039489, 0.479372
0.389966, 0.050242, 0.603097
0.405012, 0.030933, 0.622995
0.410476, 0.038754, 0.629030
0.399435, 0.050346, 0.604249
0.418838, 0.051855, 0.644122
0.346480, 0.040399, 0.633945
0.383391, 0.052075, 0.631263
0.381307, 0.049422, 0.646469
0.373065, 0.062717, 0.353178
0.381933, 0.054598, 0.380598
0.392551, 0.062809, 0.442019
0.410003, 0.009061, 0.403657
0.411766, 0.033188, 0.395754
0.414198, 0.003613, 0.529456
0.426443, -0.011182, 0.440733
0.401929, 0.005726, 0.450985
0.419833, 0.004296, 0.527195
0.417908, 0.004267, 0.534442
0.411890, 0.044424, 0.537455
0.409943, 0.040098, 0.408318
0.405540, 0.041805, 0.426239
0.432029, -0.001261, 0.525208
0.389525, 0.002575, 0.394122
0.400325, 0.004886, 0.400549
0.373590, 0.053239, 0.540556
0.407104, 0.052712, 0.530325
0.408992, 0.005978, 0.537582
0.387337, 0.048952, 0.409741
0.384621, 0.052003, 0.395465
0.361634, 0.058409, 0.512158
0.402527, 0.006137, 0.537668
0.393376, 0.053228, 0.525340
0.405608, 0.005598, 0.525021
0.406131, 0.005837, 0.526681
0.394527, 0.053001, 0.445882
0.398726, 0.005675, 0.448377
0.401615, 0.056323, 0.528612
0.413612, 0.043629, 0.510399
0.411168, 0.030555, 0.512109
0.406976, 0.003509, 0.444285
0.429276, 0.018014, 0.518409
0.388323, 0.037631, 0.473152
0.410288, 0.024790, 0.512444
0.423877, 0.020529, 0.510220
0.405624, 0.021502, 0.452891
0.411040, 0.025042, 0.386912
0.403873, 0.022706, 0.374131
0.401349, 0.052576, 0.512830
0.420661, 0.049015, 0.523217
0.401800, 0.019135, 0.511369
0.404401, -0.004252, 0.431111
0.412635, 0.024927, 0.511917
0.409242, 0.042630, 0.383997
0.382736, 0.018186, 0.393595
0.375724, 0.032707, 0.489673
0.401388, 0.018110, 0.379055
0.429076, 0.019017, 0.528054
0.309699, 0.024427, 0.580967
0.407487, -0.001244, 0.410073
0.380782, 0.039980, 0.470571
0.392650, 0.050244, 0.401712
0.373885, 0.054626, 0.479671
0.361391, 0.054210, 0.484075
0.399084, 0.009043, 0.442040
0.386327, 0.039825, 0.474208
0.386280, 0.053829, 0.480492
0.399257, 0.053927, 0.382032
0.384393, 0.053594, 0.388038
0.385125, 0.047228, 0.406609
0.385969, 0.045357, 0.413865
0.374844, 0.050311, 0.485593
0.401505, 0.009118, 0.409978
0.390427, 0.045838, 0.391901
0.391979, 0.053619, 0.387929
0.411187, -0.009513, 0.441443
0.392679, 0.038976, 0.469438
0.386818, 0.047466, 0.411874
0.384282, 0.033543, 0.410432
0.389688, 0.055231, 0.391324
0.399405, 0.001505, 0.391451
0.399281, 0.010435, 0.408793
0.418232, 0.063904, 0.619976
0.400466, 0.056615, 0.656780
0.358231, 0.056662, 0.654351
0.395948, 0.037982, 0.629002
0.411520, 0.027307, 0.629037
0.371637, 0.052194, 0.611800
0.377959, 0.050008, 0.649462
0.382551, 0.042424, 0.429928
0.425427, 0.008388, 0.430254
0.390361, 0.046643, 0.405047
0.393044, -0.004717, 0.379146
0.394065, 0.005589, 0.391332
0.412961, 0.027874, 0.467549
0.387917, 0.043427, 0.606730
0.412247, -0.003905, 0.530151
0.407370, 0.045693, 0.548254
0.408097, 0.005513, 0.536027
0.408854, 0.023030, 0.532069
0.402078, 0.029726, 0.533396
0.412319, 0.004928, 0.531521
0.416872, -0.000892, 0.539326
0.412533, -0.001541, 0.531260
0.424790, 0.046637, 0.586131
0.580836, -0.019928, 0.634024
0.373772, 0.056868, 0.391689
0.406969, 0.022305, 0.439408
0.392949, -0.006785, 0.381234
0.409400, 0.014884, 0.376394
0.404341, 0.030506, 0.430183
0.412813, 0.032438, 0.408220
0.396977, 0.050920, 0.396146
0.412581, 0.012358, 0.401958
0.410074, 0.017975, 0.370710
0.404786, 0.032585, 0.375713
0.350469, 0.086222, 0.369514
0.349985, 0.083863, 0.373092
0.348491, -0.017094, 0.368659
0.372893, 0.036589, 0.484918
0.384648, 0.037730, 0.480900
0.362355, 0.054579, 0.460282
0.364857, 0.055098, 0.383610
0.369975, 0.055083, 0.473030
0.388061, 0.054856, 0.421143
0.412508, 0.016430, 0.391342
0.424003, 0.022545, 0.399983
0.425105, 0.024733, 0.515291
0.418087, 0.001593, 0.505780
0.417324, 0.003307, 0.502651
0.414534, 0.018207, 0.516119
0.394146, 0.051888, 0.384320
0.424975, 0.037905, 0.520401
0.379961, 0.019258, 0.526356
0.406222, 0.052003, 0.507529
0.407269, 0.030894, 0.537836
0.388553, 0.046490, 0.379811
0.397155, 0.075707, 0.430948
0.364727, 0.054807, 0.505597
0.409549, 0.031967, 0.401054
0.391950, 0.050694, 0.373097
0.371290, 0.070194, 0.390511
0.362747, 0.053875, 0.516066
0.405531, 0.027117, 0.556930
0.412301, 0.024914, 0.538212
0.406622, 0.026509, 0.535923
0.410314, -0.007177, 0.546787
0.409380, -0.000852, 0.543763
0.377484, 0.052475, 0.642861
0.391499, 0.050941, 0.598834
0.403882, 0.052998, 0.600294
0.409985, 0.053562, 0.578945
0.419933, 0.009649, 0.583369
0.404329, 0.050202, 0.591404
0.440881, -0.000990, 0.640692
0.398802, 0.049771, 0.601730
0.403748, 0.050380, 0.596552
0.364755, 0.053712, 0.634782
0.404370, 0.051302, 0.595551
0.399949, 0.043567, 0.604752
0.405377, 0.046637, 0.632507
0.407688, -0.006696, 0.534799
0.408907, 0.000509, 0.543017
0.403253, 0.051093, 0.603433
0.315203, 0.033643, 0.593302
0.412513, -0.003538, 0.542276
0.418666, 0.027916, 0.631476
0.421682, 0.060517, 0.600057
0.401325, 0.010254, 0.405358
0.354268, 0.057010, 0.379182
0.414462, 0.024387, 0.372921
0.408777, 0.081741, 0.414895
0.348488, 0.055672, 0.383035
0.351058, 0.055933, 0.432787
0.367268, -0.027594, 0.277701
0.347769, 0.062075, 0.372666
0.351625, 0.007130, 0.357702
0.352489, 0.089456, 0.360920
0.349843, 0.054082, 0.386890
0.410675, 0.028055, 0.389640
0.372581, 0.053800, 0.442273
0.391671, 0.012796, 0.373546
0.393307, 0.055075, 0.403729
0.406602, -0.002496, 0.445008
0.409928, 0.054296, 0.521278
0.401392, 0.042864, 0.464108
0.412476, 0.025201, 0.520491
0.380824, 0.050353, 0.486372
0.415986, 0.002228, 0.469084
0.394351, 0.037381, 0.464138
0.400596, 0.052099, 0.513622
0.413759, 0.003114, 0.470792
0.416426, 0.037652, 0.391110
0.415842, 0.026773, 0.531919
0.409381, -0.012079, 0.409311
0.372276, 0.061434, 0.471101
0.393753, 0.054960, 0.383648
0.374214, 0.054509, 0.446598
0.054942, 0.087776, 0.154323
-0.020660, 0.032846, 0.157748
0.029463, 0.093703, 0.205196
-0.041740, 0.036882, 0.146795
0.014760, 0.015604, 0.141141
-0.116868, 0.005807, 0.093977
0.042696, 0.058705, 0.151665
0.054655, -0.014587, 0.132493
-0.097232, -0.024593, 0.115044
0.200730, 0.064005, 0.258196
0.243942, 0.056644, 0.286487
-0.032563, 0.063735, 0.179554
-0.000308, 0.114590, 0.173004
0.388883, 0.049481, 0.645927
0.384530, 0.055621, 0.609556
0.408906, 0.030813, 0.581617
0.365258, 0.019083, 0.660464
0.405675, 0.024980, 0.534568
0.412926, 0.039127, 0.535516
0.413628, 0.039349, 0.537311
0.413212, 0.043863, 0.545350
0.403417, 0.042062, 0.530678
0.412391, 0.054434, 0.513470
0.402411, 0.040232, 0.394584
0.417320, 0.036104, 0.486971
0.376004, 0.055512, 0.522064
0.420165, 0.024446, 0.495956
0.421911, 0.028186, 0.484716
0.418870, 0.039743, 0.483815
0.413589, 0.019570, 0.392670
0.393807, 0.036360, 0.406089
0.386816, 0.053777, 0.407830
0.385911, 0.038323, 0.409366
0.413599, 0.013132, 0.391997
0.376374, 0.056663, 0.494098
0.406217, 0.051976, 0.507464
0.363879, 0.054854, 0.519203
0.360767, 0.054387, 0.468829
0.408709, 0.055179, 0.503853
0.364716, 0.056843, 0.468982
0.399351, 0.052736, 0.525679
0.418959, 0.024556, 0.497252
0.386503, 0.054901, 0.512411
0.410844, 0.044581, 0.492259
0.407553, 0.025206, 0.519131
0.386027, 0.037763, 0.388646
0.388796, 0.042607, 0.376619
0.373893, 0.050202, 0.477269
0.403814, 0.030507, 0.511851
0.411563, 0.030505, 0.519573
0.416948, 0.016483, 0.518643
0.407047, 0.052366, 0.505074
0.415085, 0.043592, 0.520616
0.412866, 0.030341, 0.519189
0.428118, 0.051031, 0.359957
0.418244, 0.026057, 0.463174
0.367783, 0.054855, 0.504127
0.411717, 0.054829, 0.388656
0.422755, 0.043335, 0.484980
0.418571, 0.023238, 0.461350
0.362150, 0.053099, 0.484876
0.423011, 0.021836, 0.457529
0.394065, 0.039413, 0.467255
0.380468, 0.052316, 0.487121
0.381857, 0.042645, 0.415114
0.387871, 0.046187, 0.401932
0.402839, -0.000225, 0.416009
0.372048, 0.053970, 0.518376
0.401040, 0.005620, 0.424744
0.410014, 0.025612, 0.532706
0.401240, 0.026763, 0.538092
0.413389, 0.039325, 0.537275
0.401192, 0.052583, 0.490953
0.401213, 0.052484, 0.525454
0.432066, -0.013363, 0.433405
0.394786, 0.053379, 0.530657
0.398765, 0.051934, 0.525804
0.411687, 0.004191, 0.514415
0.407124, 0.053550, 0.519951
0.407189, 0.043641, 0.526634
0.393321, 0.051974, 0.519211
0.416647, 0.003318, 0.534294
0.382456, 0.054491, 0.484248
0.374546, 0.054916, 0.478080
0.356411, 0.087238, 0.442425
0.392779, 0.044445, 0.382530
0.397541, 0.044431, 0.376954
0.392528, 0.017505, 0.377132
0.358508, 0.053688, 0.466837
0.392794, 0.050763, 0.387166
0.355553, 0.086936, 0.416441
0.388468, 0.045715, 0.378571
0.349756, 0.081704, 0.439594
0.395590, 0.046205, 0.374938
0.384473, 0.043929, 0.404790
0.381189, 0.053042, 0.388166
0.375639, 0.049870, 0.487494
0.392191, 0.052795, 0.392336
0.383729, 0.042562, 0.411601
0.388028, 0.045841, 0.379509
0.382512, 0.038170, 0.477562
0.394664, 0.037358, 0.461342
0.406457, -0.006347, 0.440651
0.409370, 0.039572, 0.491978
0.380038, 0.052619, 0.486601
0.423434, 0.003519, 0.526732
0.387200, 0.039522, 0.478752
0.392504, 0.002152, 0.401105
0.400303, -0.000634, 0.453735
0.399314, 0.002535, 0.456911
0.413548, 0.039044, 0.488704
0.404053, 0.013803, 0.430167
0.373796, 0.051630, 0.478940
0.393967, -0.001158, 0.384048
0.393049, 0.000955, 0.374894
0.400078, 0.016715, 0.436151
0.383890, 0.046188, 0.409592
0.385373, 0.050673, 0.415411
0.384161, 0.047458, 0.383020
0.362131, 0.092714, 0.424664
0.393742, -0.008799, 0.385359
0.385091, 0.033538, 0.409949
0.388074, 0.033413, 0.411185
0.400896, 0.059899, 0.399002
0.392865, 0.009924, 0.418675
0.362752, 0.046722, 0.503173
0.398507, 0.051394, 0.603229
0.406420, 0.026151, 0.630299
0.411950, 0.053245, 0.554363
0.365649, 0.053700, 0.608230
0.367793, 0.055440, 0.575340
0.373281, 0.048012, 0.638695
0.352679, 0.041613, 0.603180
0.376863, 0.054799, 0.573433
0.361646, 0.028752, 0.598066
0.392186, 0.048915, 0.592568
0.415987, 0.050604, 0.586976
0.386208, 0.052347, 0.603043
0.419673, -0.007622, 0.600028
0.384290, 0.046586, 0.383506
0.379444, 0.034650, 0.405893
0.411514, 0.040500, 0.405969
0.413132, 0.026290, 0.390887
0.401877, -0.003015, 0.397442
