-0.039362, 0.061761, -0.062521
-0.157658, 0.039968, 0.122312
-0.042101, -0.068382, -0.085987
-0.056027, 0.059181, -0.054770
-0.158688, 0.028459, 0.133680
-0.225030, 0.023139, 0.176437
-0.002254, 0.045185, 0.001973
-0.223615, 0.023516, 0.181304
-0.070184, 0.046681, 0.107108
-0.120596, 0.043689, 0.099070
-0.093790, 0.045659, 0.077609
-0.015562, 0.040025, -0.043854
-0.045133, -0.070069, -0.094584
-0.258168, 0.010307, 0.147732
-0.108026, 0.023271, 0.189359
-0.090259, 0.036444, 0.170883
-0.508473, -0.174648, 0.052156
-0.050398, 0.000276, -0.039430
-0.100465, -0.043885, -0.144276
-0.683638, 0.045486, 0.004002
-0.218968, 0.034595, 0.169412
-0.109532, -0.074271, -0.073263
-0.287553, 0.005484, 0.182527
-0.106971, 0.022967, 0.009276
-0.054596, 0.041524, -0.044476
-0.052486, 0.002767, -0.056275
-0.198619, 0.023444, 0.086747
-0.160371, 0.011682, 0.003231
-0.167639, 0.012771, -0.001006
-0.231705, 0.045026, 0.080093
-0.200798, 0.022649, 0.087012
-0.429071, 0.044519, 0.117923
-0.332564, 0.035329, 0.100099
-0.180811, 0.029275, 0.043165
-0.337255, 0.020220, 0.113243
-0.199457, 0.023374, 0.086796
-0.176353, 0.021967, 0.006542
-0.262101, 0.045214, 0.066292
-0.268472, 0.015596, 0.117923
-0.133699, 0.012173, 0.008454
-0.193669, 0.024536, 0.035850
-0.152849, 0.011465, 0.004497
-0.157137, -0.028576, -0.024018
-0.172375, 0.015023, 0.000296
-0.201138, 0.010649, 0.010661
-0.129435, 0.014142, -0.003446
-0.170998, -0.016615, -0.043270
-0.141370, 0.008979, 0.004367
-0.142785, 0.012420, 0.004371
-0.122691, 0.015249, 0.008974
-0.183343, 0.024784, 0.091893
-0.204444, 0.023576, 0.087228
-0.195152, 0.021098, 0.117288
-0.181444, 0.029536, 0.042901
-0.208395, 0.028839, 0.045704
-0.218719, 0.028137, 0.034216
-0.171713, 0.014484, 0.003830
-0.164743, 0.012976, 0.000116
-0.202079, 0.010871, 0.010221
-0.154752, 0.031075, 0.013806
-0.193595, 0.029676, 0.025445
-0.121027, 0.017431, 0.004138
0.001844, 0.015357, 0.078300
0.037419, 0.024995, 0.133647
0.010220, 0.027330, 0.098010
0.020615, 0.026105, 0.107548
0.000656, 0.002263, 0.065569
-0.016342, 0.008823, 0.075837
0.048374, 0.003833, 0.144471
0.028740, 0.023076, 0.149749
0.041146, 0.024451, 0.176467
0.026730, 0.029927, 0.077453
0.008992, 0.026658, 0.098693
0.015793, -0.045816, 0.062492
0.022170, 0.026860, 0.106792
0.016441, 0.026103, 0.114469
-0.025359, 0.003727, 0.080963
0.014983, 0.015245, 0.098845
0.009149, 0.018541, 0.015125
0.015020, 0.027008, 0.078854
0.035435, 0.014765, 0.110398
-0.010897, 0.004194, 0.053589
0.030024, 0.002861, 0.090301
0.168378, 0.013309, -0.000195
0.022926, -0.001178, 0.108797
0.074687, 0.008367, 0.079404
0.082329, -0.018814, 0.196625
0.062414, -0.046810, 0.023316
0.022304, 0.023345, 0.064004
0.037934, 0.000765, 0.074007
0.021894, 0.007082, 0.089698
-0.345424, 0.033668, 0.110178
-0.707958, 0.042761, 0.220094
-0.329049, -0.032366, 0.065292
-0.300214, 0.005853, 0.132035
-0.518939, -0.046831, 0.195231
-0.409116, 0.042410, 0.087343
-0.009472, 0.032250, -0.015522
-0.240174, 0.007197, 0.153590
-0.133911, 0.026881, 0.021787
-0.232450, 0.021715, 0.153725
-0.174469, 0.037222, 0.132173
-0.220474, 0.045010, 0.079907
-0.131721, 0.047542, 0.062811
-0.138576, 0.033780, 0.023030
-0.123143, 0.040316, 0.016679
-0.108772, 0.035635, -0.022402
-0.123021, 0.013155, -0.009813
-0.132133, 0.012724, -0.009451
-0.112464, 0.014127, -0.000083
-0.114361, 0.022880, 0.009545
-0.127427, 0.013185, 0.019180
-0.124562, 0.012348, 0.012208
-0.123515, 0.009566, 0.015247
-0.118473, 0.022730, 0.015708
-0.005799, 0.010172, 0.076632
0.037404, 0.005171, -0.001382
0.172662, -0.042319, 0.226104
0.067692, -0.046591, 0.021455
0.072318, 0.026601, 0.158200
0.022912, 0.024745, 0.136453
0.032487, 0.003639, 0.041843
0.044751, -0.057075, 0.086105
0.035117, 0.029073, 0.109564
0.027604, -0.053829, 0.065558
0.047248, 0.005295, 0.157281
0.051843, 0.001683, 0.168464
0.099439, 0.024079, 0.178020
0.017365, 0.030424, 0.079034
0.015241, 0.003920, 0.094018
0.010635, 0.029532, 0.066581
0.004496, 0.007572, 0.070706
0.004295, 0.027443, 0.098474
0.129098, 0.034946, 0.150317
0.017122, 0.017815, 0.055330
0.027546, 0.001899, 0.008173
0.029561, 0.020316, 0.080746
0.022061, 0.018542, 0.084774
-0.004579, -0.000463, 0.055182
0.041429, 0.017140, 0.075225
0.090999, 0.010449, 0.037062
0.044485, -0.003737, 0.024579
0.080206, 0.018206, 0.145356
-0.032217, 0.002979, -0.054022
-0.005834, 0.052493, 0.003574
-0.007927, 0.031606, -0.000927
-0.001949, 0.034549, -0.028411
-0.052893, 0.058278, -0.040839
-0.064445, -0.065675, -0.062870
0.010897, 0.042741, 0.037554
-0.006125, 0.053097, 0.004061
0.000064, 0.051750, 0.021131
-0.010622, 0.035696, -0.034623
-0.004405, 0.051582, 0.006784
-0.068907, -0.015989, -0.129973
-0.055153, 0.060452, -0.044585
-0.209699, 0.021912, 0.149502
-0.127725, -0.054902, -0.098312
-0.046033, 0.026021, -0.059891
-0.011169, 0.030818, -0.016314
-0.026298, 0.028981, -0.048725
-0.113798, 0.012190, 0.172707
0.005031, 0.049724, 0.040485
-0.105045, 0.014400, 0.180469
-0.006832, 0.018378, -0.021597
-0.000515, 0.052914, 0.010613
-0.022285, 0.027779, -0.039739
-0.056113, -0.051877, -0.046663
-0.274331, 0.034720, 0.191049
-0.240498, -0.008962, 0.183612
-0.122242, 0.044113, 0.099100
-0.149763, 0.039727, 0.133880
-0.058937, 0.047940, 0.076402
-0.069791, 0.046840, 0.086949
-0.028517, 0.041196, -0.030440
-0.003234, 0.048705, 0.008057
-0.050988, 0.055229, -0.041750
-0.008517, 0.035939, -0.000764
-0.037117, 0.044884, -0.063179
-0.034589, 0.047277, 0.081604
-0.012837, 0.046665, 0.083102
-0.056876, 0.041997, 0.139835
-0.108316, 0.021420, 0.193469
-0.095732, 0.038347, 0.156285
-0.090225, 0.036808, 0.165042
-0.004031, 0.041909, -0.049337
-0.048176, 0.057682, -0.033799
-0.004557, 0.054685, 0.003597
-0.045294, -0.075136, -0.095047
-0.017500, 0.014388, -0.035532
-0.036929, 0.005896, -0.064604
-0.120466, 0.044913, 0.184118
-0.076804, 0.033043, 0.180203
-0.032076, 0.019905, -0.052363
-0.020241, -0.000623, -0.050841
-0.332582, -0.037816, 0.135508
-0.196756, -0.020487, 0.020350
-0.151113, 0.030550, 0.133539
-0.083808, 0.060176, -0.036531
-0.191932, 0.023720, 0.051560
-0.238719, -0.118468, 0.020901
-0.079368, 0.054085, -0.028987
-0.138309, 0.010082, 0.008848
-0.133763, 0.009196, 0.016333
-0.127979, 0.012886, 0.020721
-0.303959, 0.016228, 0.041459
-0.237712, 0.004932, 0.023125
-0.150753, -0.017309, -0.014816
-0.133140, -0.016374, -0.016175
-0.156230, 0.011264, 0.006862
-0.206088, -0.066387, -0.062480
-0.315089, -0.010994, 0.034495
-0.099155, 0.018720, -0.046871
-0.141162, 0.040176, 0.039190
-0.005956, 0.006937, 0.073933
0.012975, 0.014261, 0.098758
-0.369449, -0.079359, 0.029157
0.106557, -0.045077, 0.041894
0.109016, 0.010776, 0.123788
0.099032, 0.010592, 0.115246
0.093656, 0.027773, 0.115030
0.064784, 0.013108, 0.046470
0.123017, 0.013171, 0.087299
0.107623, 0.012188, 0.095464
0.105991, 0.003283, 0.098912
0.121267, 0.011555, 0.113846
0.105187, 0.004830, 0.161052
0.124076, -0.039004, 0.022153
0.080763, 0.033525, 0.036564
0.099316, 0.009494, 0.123363
0.106897, 0.062394, -0.077404
0.063683, -0.050742, -0.022026
0.088520, 0.031001, 0.089327
0.180871, -0.008996, -0.107762
0.075118, 0.039368, 0.098812
0.106115, 0.004395, 0.163461
0.073475, -0.071907, -0.131197
-0.071016, -0.096828, -0.064406
0.122379, 0.006292, 0.063633
0.108160, 0.011879, 0.094911
0.092994, 0.020804, 0.078728
0.177081, 0.047404, -0.077829
0.084149, 0.006606, 0.139125
0.184506, -0.050167, -0.008374
0.110508, 0.013764, 0.091024
0.177749, -0.011231, -0.070805
0.107266, 0.009421, 0.127424
0.260509, -0.020219, -0.030133
0.220885, -0.013652, 0.030768
0.212365, -0.014237, 0.002866
0.218254, 0.009375, -0.030410
0.272414, 0.021936, 0.037563
0.241195, -0.000510, 0.032331
0.256891, 0.012979, 0.038868
0.234518, -0.019186, 0.033503
0.145494, -0.017245, -0.002205
0.221374, -0.044800, 0.241730
0.160531, 0.013842, 0.043216
0.120491, -0.016790, 0.089902
0.141426, -0.016822, 0.083227
0.111925, 0.016541, 0.177656
0.081687, -0.063862, -0.075271
0.096408, 0.008340, 0.128608
0.054226, 0.013052, 0.052376
0.034117, -0.059972, -0.064752
0.213526, -0.008218, -0.099286
0.016760, -0.068290, -0.093606
0.083334, 0.077057, -0.029378
0.093592, -0.060896, -0.095549
0.111152, 0.016986, 0.009375
-0.081931, 0.019579, -0.028839
0.161633, 0.033796, -0.040967
0.072286, 0.091971, -0.047847
0.102207, 0.009195, 0.122958
0.071286, -0.047279, -0.003109
0.286281, 0.170442, -0.383613
0.082124, -0.080655, 0.001117
0.226046, 0.084051, -0.162800
0.148619, 0.049628, 0.047004
0.118033, 0.012065, 0.112460
0.198581, -0.040270, 0.016738
0.155860, 0.055173, 0.038418
-0.181520, 0.020572, 0.045559
-0.256659, -0.093280, 0.041060
-0.188696, 0.037163, 0.057803
-0.204732, 0.016400, 0.037758
-0.051155, 0.055279, -0.046339
-0.077433, 0.060210, -0.026511
-0.102441, 0.036442, 0.185520
-0.139339, -0.065455, -0.018264
-0.113621, -0.010817, -0.022223
-0.134971, -0.035791, -0.016026
-0.542646, -0.121656, 0.038684
-0.135573, 0.015791, 0.020367
-0.326010, -0.097744, 0.042655
-0.080774, 0.055639, -0.041875
0.261136, 0.026593, -0.072859
0.062448, -0.000447, 0.258512
0.030907, -0.000211, 0.025158
0.036388, -0.054898, 0.087873
-0.004954, 0.014793, 0.072934
0.023489, 0.000774, 0.244793
-0.008885, 0.025288, 0.162209
-0.000265, 0.003250, 0.066865
0.074516, 0.010494, 0.207164
0.031637, -0.050969, 0.094488
0.045042, 0.013221, 0.218406
0.018517, -0.043265, 0.063024
0.092323, 0.022943, 0.213295
0.171513, -0.025032, 0.323352
-0.130530, 0.021997, 0.122585
-0.308136, -0.001799, 0.153766
-0.014644, 0.022753, -0.021381
-0.140665, 0.040559, 0.112012
-0.230561, 0.047968, 0.083432
0.214034, 0.072136, -0.100441
0.114949, 0.031650, 0.108267
0.064621, -0.080743, -0.011335
0.179924, 0.063999, -0.044021
0.135018, 0.057077, 0.058520
0.180288, -0.066159, -0.095377
0.116234, 0.013793, 0.090260
0.209107, 0.062784, -0.071058
0.111233, 0.026458, 0.118367
0.140207, -0.004333, 0.152012
0.075129, 0.017962, 0.109530
0.086747, 0.006190, 0.139721
0.078168, 0.037563, 0.101705
0.095888, 0.009702, 0.136678
-0.031240, 0.013000, -0.049790
-0.010746, 0.003001, -0.029398
-0.209610, 0.031763, 0.143762
-0.232879, -0.001926, 0.110167
-0.002687, 0.021008, -0.040153
-0.112945, 0.037050, 0.202609
-0.119104, 0.029364, 0.200277
-0.136054, 0.015181, 0.197558
-0.039425, 0.022449, -0.055643
-0.030240, 0.045032, 0.083955
-0.151033, 0.017767, 0.156939
-0.166007, 0.040603, 0.093491
-0.055317, 0.054243, -0.059154
-0.091732, 0.035422, 0.172636
-0.097658, -0.019295, -0.013180
-0.106859, 0.037959, 0.156761
-0.026130, 0.043880, 0.117126
-0.447743, 0.050828, 0.107131
-0.673355, -0.134340, 0.242070
-0.373000, 0.045023, 0.089589
-0.537481, -0.093933, 0.261093
-0.850964, -0.217919, 0.376099
-0.352212, 0.005553, 0.185948
-0.326680, -0.026597, 0.045014
-0.397116, 0.057556, 0.130044
-0.463329, 0.025836, 0.147964
-0.418433, 0.045453, 0.086954
-0.464956, 0.061554, 0.060934
-0.462028, 0.039376, 0.137948
-0.322762, 0.026335, 0.230004
-0.307326, -0.011901, 0.205921
-0.257347, 0.019748, 0.189361
-0.290578, 0.034922, 0.157397
-0.271790, 0.038067, 0.023478
-0.423423, -0.054450, 0.272537
-0.380187, -0.030983, 0.002002
-0.474764, -0.026176, 0.211482
-0.693249, -0.008005, 0.333974
-0.588759, -0.113348, 0.280417
0.189977, -0.035485, 0.023914
0.196504, -0.037477, 0.040099
0.184501, -0.051027, 0.006194
0.107755, -0.070010, 0.062596
0.163726, 0.056223, 0.067327
0.190612, 0.061924, 0.016028
0.104619, 0.007713, 0.104779
0.110654, 0.011489, 0.113411
0.190410, -0.047747, 0.012835
0.109091, 0.017448, 0.117828
-0.026135, 0.005422, -0.044251
0.092316, -0.051044, 0.032973
-0.045008, 0.028818, -0.049912
-0.066070, -0.007631, -0.066709
0.096805, 0.006332, 0.135341
0.171815, 0.059385, 0.030262
0.211095, -0.008072, -0.079970
0.048285, 0.020045, -0.023008
-0.130809, -0.017612, -0.097003
0.053340, 0.015324, 0.006802
-0.314561, -0.117344, 0.038477
-0.262811, 0.018668, 0.111678
-0.119915, 0.046557, 0.099203
-0.317217, -0.118308, 0.024883
-0.217580, -0.032442, -0.016417
-0.240204, 0.002815, 0.097514
-0.301741, -0.006216, 0.131359
-0.312647, -0.117238, 0.025984
-0.143276, 0.045713, 0.039451
-0.409288, -0.030651, 0.063190
-0.187511, 0.014911, 0.111204
-0.254831, 0.042565, 0.068741
-0.104699, 0.018573, 0.196370
-0.497895, -0.184826, 0.128051
-0.187336, 0.010691, 0.117236
-0.950861, -0.302044, 0.312968
-0.124181, 0.004924, 0.020310
-0.112643, 0.037027, 0.184374
-0.182244, 0.017064, 0.118589
-0.675802, -0.196975, 0.267611
-0.375556, -0.126531, 0.028925
0.061147, 0.015311, 0.113410
0.189235, -0.050052, -0.034363
0.235795, 0.071764, -0.113940
-0.001015, 0.007607, -0.029977
0.051952, -0.079878, -0.032849
0.067497, -0.092260, -0.058697
-0.097324, -0.009018, -0.017181
0.093356, 0.008122, 0.109009
0.009884, -0.000248, -0.040447
0.005328, 0.001527, -0.037696
0.060218, 0.013455, 0.081021
0.210397, -0.001018, -0.015210
0.097269, 0.025340, 0.101821
0.114862, 0.013978, 0.080310
0.043603, -0.057416, -0.047696
-0.140790, 0.054196, -0.168676
-0.169188, 0.073738, -0.187601
-0.115972, -0.104186, -0.082430
0.217384, 0.074509, -0.082468
0.170223, 0.061118, 0.025814
0.078377, -0.076882, -0.108300
-0.039935, -0.063434, -0.079302
0.209163, 0.068023, -0.067996
-0.009620, 0.049725, -0.116301
0.133359, 0.013377, -0.038242
-0.041152, 0.032803, -0.039301
-0.091565, 0.046774, -0.030745
0.124895, 0.012614, 0.116349
0.087983, 0.065118, -0.011985
0.125232, 0.030084, 0.106778
0.150451, 0.053546, 0.020395
0.146302, 0.058549, -0.006163
-0.058375, -0.110993, -0.009956
0.174708, 0.067533, 0.012562
0.156576, -0.016482, 0.174935
0.110263, 0.005885, 0.151845
0.102052, 0.022724, 0.105960
0.092667, 0.031152, 0.097507
0.220661, 0.081996, -0.132878
0.106011, 0.006151, 0.132183
0.194111, 0.060345, -0.030829
0.074133, 0.014742, 0.122548
0.194810, -0.013287, 0.158061
0.095628, 0.008363, 0.124974
0.125714, 0.014872, 0.148355
0.163802, 0.056485, 0.066145
0.159518, 0.059024, 0.048713
0.097032, 0.005671, 0.136881
0.127637, 0.013017, 0.146926
0.002237, 0.046497, 0.096949
0.140679, 0.044755, 0.115987
0.191929, -0.013867, 0.150375
0.110596, 0.017715, 0.128545
0.111319, 0.029465, 0.113777
0.191670, -0.020589, 0.135707
0.188634, -0.020505, 0.148218
-0.187573, 0.017051, -0.001120
-0.376076, 0.030465, 0.129166
-0.220833, 0.019579, 0.034182
-0.203897, 0.022060, 0.017801
-0.272673, 0.039847, 0.064737
-0.401508, -0.060435, 0.031151
-0.213482, -0.022986, -0.006223
-0.279962, -0.011823, 0.056978
-0.194722, 0.026248, 0.029183
-0.149052, -0.023629, -0.027568
-0.269093, -0.016828, 0.053229
-0.269456, -0.014554, 0.056063
-0.266659, -0.001315, 0.055325
-0.266841, -0.003766, 0.055444
-0.201894, -0.038908, -0.017958
-0.187606, -0.021400, -0.018540
-0.202095, 0.021392, 0.027526
-0.196258, -0.035218, -0.015969
-0.248868, 0.011539, 0.057196
-0.257319, -0.018614, 0.054444
-0.273440, -0.012975, 0.057293
-0.197289, 0.024028, 0.025212
-0.339585, 0.037534, 0.092607
-0.534422, 0.083090, 0.007179
-0.207510, 0.029772, 0.034053
-0.268935, -0.012357, 0.053954
-0.238807, 0.027193, 0.028761
-0.253444, -0.047622, -0.001820
-0.248457, -0.043297, -0.004848
-0.246853, -0.043583, -0.003131
-0.214538, 0.026855, 0.050227
-0.382912, 0.045170, 0.092330
-0.199196, 0.030034, 0.019718
-0.217089, -0.030684, -0.031852
-0.169980, -0.017154, -0.020967
-0.197741, 0.023707, 0.032145
-0.200891, 0.026513, 0.018039
-0.252762, -0.038777, -0.005216
-0.199350, -0.034586, -0.013407
-0.229240, 0.016730, 0.024036
-0.220127, 0.026262, 0.052360
-0.191035, 0.015567, 0.011292
-0.243669, -0.034349, 0.004463
-0.206557, -0.046327, -0.010331
-0.608169, -0.164477, 0.088841
-0.263717, -0.030853, -0.014840
-0.198738, 0.019636, 0.020464
-0.209929, 0.014414, 0.012635
-0.206178, 0.016819, 0.024944
-0.378442, -0.066478, 0.004376
-0.223226, -0.021808, 0.004389
-0.124620, 0.045735, 0.087583
-0.252003, -0.086309, 0.201735
-0.092644, 0.022154, -0.044556
-0.041084, 0.044709, 0.100628
-0.068842, 0.045926, 0.087428
-0.088804, 0.049080, 0.046737
-0.054411, 0.053855, -0.056784
-0.017610, -0.000147, -0.059433
-0.106257, 0.019006, 0.196950
-0.267496, 0.004195, 0.183684
-0.104974, 0.037432, 0.183157
-0.264452, 0.029651, 0.164615
-0.709376, -0.214411, 0.297150
0.047998, 0.009430, 0.027633
0.117193, -0.001704, 0.022583
-0.096168, 0.029666, 0.011882
-0.120520, -0.117790, -0.073836
-0.095964, 0.038032, 0.016815
0.210814, 0.065130, -0.078206
0.131002, 0.057968, 0.004349
0.065960, 0.011380, 0.024723
-0.056329, -0.010240, -0.044996
0.099921, 0.015108, 0.065076
0.139175, 0.058433, -0.029659
-0.079209, -0.052252, -0.055350
-0.058022, -0.086925, -0.059082
-0.089308, -0.088892, -0.056467
0.103622, 0.016643, 0.177432
0.021264, 0.012371, 0.133171
0.091212, 0.018436, 0.216689
0.151098, -0.057431, 0.212375
0.108467, 0.007352, -0.008113
0.046008, 0.005713, 0.027166
0.020510, 0.002007, 0.050523
0.009147, 0.022690, 0.068613
0.003852, 0.027896, 0.072008
0.067189, -0.015859, 0.018185
0.037345, 0.024545, 0.176910
0.171237, -0.029044, 0.256759
-0.004695, 0.007897, 0.070625
-0.023302, 0.021625, 0.078200
0.021998, -0.057853, 0.081848
0.167995, -0.039948, 0.240947
-0.004503, 0.008937, 0.070519
-0.085192, 0.002072, 0.177954
-0.157583, -0.085638, 0.115880
-0.090915, 0.029142, 0.030291
-0.094323, 0.046844, 0.033293
-0.293908, 0.005309, 0.215289
-0.074173, 0.026631, 0.178644
-0.105205, 0.003546, 0.174570
0.112922, 0.011143, 0.173379
0.072458, 0.019251, 0.117680
0.098816, 0.008137, 0.152704
0.122617, 0.017554, 0.140465
0.110580, 0.021809, 0.123140
0.189694, 0.012328, 0.146373
0.053391, 0.013937, 0.101744
0.118266, 0.018227, 0.133009
0.113769, 0.009859, 0.174045
0.083817, 0.007513, 0.137706
0.008328, 0.015007, 0.089766
0.023459, 0.000479, 0.117337
0.063188, 0.014433, 0.215084
-0.009772, 0.028483, 0.056736
0.145826, -0.033547, 0.203292
0.278844, -0.107424, 0.272529
0.018265, -0.000305, 0.110247
0.026893, 0.002078, 0.076448
0.024181, 0.024104, 0.092591
0.067115, -0.022671, 0.236218
0.001141, 0.026784, 0.068621
-0.022776, 0.016807, 0.077009
0.037036, -0.052642, 0.089225
0.051588, 0.024761, 0.169904
0.095340, 0.019835, 0.240852
0.179686, -0.100078, 0.214880
0.013852, 0.015037, 0.103221
0.049370, 0.012188, 0.161326
0.025943, 0.027378, 0.099918
0.008676, 0.016016, 0.087218
-0.010866, 0.025844, 0.134471
-0.015259, 0.023016, 0.078286
0.024187, 0.001291, 0.068182
0.037006, 0.008661, 0.219803
0.006861, 0.019493, 0.078226
-0.261592, 0.044714, 0.066808
-0.206937, 0.029740, 0.039314
-0.186127, 0.033112, 0.047504
-0.279737, 0.025474, 0.062212
-0.129901, 0.012254, 0.016071
-0.443373, -0.009210, 0.175454
-0.204793, 0.027139, 0.087125
-0.205454, 0.022509, 0.033686
-0.214062, 0.026711, 0.034898
-0.198864, 0.026233, 0.048261
-0.231547, 0.049088, 0.078660
-0.485430, -0.009897, 0.185317
-0.144923, 0.008035, 0.002179
-0.115261, 0.016270, -0.005026
-0.168477, -0.017330, -0.019127
-0.131144, 0.011970, 0.005825
-0.148140, 0.014544, 0.009704
-0.145367, -0.026475, -0.023852
-0.169857, 0.018566, 0.007569
-0.182013, -0.041222, -0.065336
-0.132869, 0.013977, -0.002229
0.197914, -0.039985, 0.036234
0.198225, 0.025921, 0.082242
0.110751, 0.010327, 0.170250
0.074372, 0.018828, 0.105008
0.096558, 0.006926, 0.123994
0.113817, 0.006324, 0.173738
0.123087, 0.035168, 0.120241
0.110178, 0.043115, 0.107022
0.268679, -0.011832, 0.312548
-0.312165, -0.005889, 0.114667
-0.443155, 0.057477, 0.124237
-0.345031, -0.011790, 0.125131
-0.394403, 0.048038, 0.079404
-0.415148, 0.047381, 0.156696
-0.392318, 0.047776, 0.064039
-0.408626, 0.031148, 0.152316
-0.346416, -0.012937, 0.036118
0.039675, 0.019319, 0.217247
0.001107, 0.010625, 0.073083
0.064942, -0.012303, 0.208783
0.014003, 0.017161, 0.058396
-0.002488, -0.004275, 0.065649
0.007669, 0.027508, 0.069720
0.015752, 0.023708, 0.063174
-0.026154, 0.026068, 0.069209
-0.011445, 0.004148, 0.054759
0.021861, 0.026923, 0.084995
0.028357, 0.024193, 0.179577
-0.021992, 0.006214, 0.073785
0.005239, -0.000529, 0.089214
0.024002, -0.010035, 0.006067
0.020418, -0.003120, 0.013007
0.020215, 0.012316, 0.132677
-0.010214, 0.025650, 0.079845
-0.021131, 0.013040, 0.070046
0.066862, -0.013698, 0.215071
-0.020359, 0.025081, 0.078538
0.009754, 0.012012, 0.100180
-0.005035, -0.002700, 0.066592
0.025631, 0.025077, 0.048259
-0.009210, 0.001672, 0.057357
-0.032449, 0.024517, 0.082468
0.019984, 0.027110, 0.057846
0.078950, 0.008496, 0.213383
0.017669, -0.001013, 0.013203
0.018707, 0.026760, 0.102421
0.092119, -0.003570, 0.216277
0.044864, 0.003035, 0.025280
0.090950, 0.002990, 0.163112
0.067004, -0.009111, 0.026824
0.046201, 0.012986, 0.006872
0.062579, 0.009880, 0.020041
0.019632, -0.047341, 0.063817
0.018470, -0.043684, 0.063621
0.037459, 0.002675, 0.043555
0.016907, -0.046514, 0.064306
0.078255, 0.028723, 0.151857
0.003429, 0.009774, 0.072490
0.008086, 0.012591, 0.060835
0.040123, -0.053555, 0.093583
0.048092, 0.007860, 0.140048
0.207142, -0.003319, 0.202945
0.225975, -0.020723, 0.274592
0.273145, -0.018565, 0.284841
0.235546, -0.006398, 0.210867
0.229408, -0.057285, 0.194548
0.233574, -0.027618, 0.190512
0.260026, -0.013128, 0.255757
0.229670, -0.004522, 0.203476
0.240059, -0.036984, 0.301932
0.258705, -0.009439, 0.255539
0.236427, -0.010685, 0.195322
0.240715, -0.025580, 0.195273
0.227760, -0.011813, 0.233593
0.263358, -0.011539, 0.259009
0.254933, -0.047312, 0.251166
0.270113, -0.028706, 0.275297
0.260023, -0.028120, 0.275287
0.037396, -0.002887, 0.141597
0.150814, -0.016970, 0.080487
0.169859, 0.020182, 0.007343
0.183246, 0.024894, 0.022951
0.041115, 0.000404, 0.118530
0.029968, 0.005778, 0.113520
0.062059, 0.013037, 0.146235
0.102715, -0.043190, 0.070989
0.053744, 0.005457, 0.159460
0.056694, -0.001924, 0.130586
0.055908, -0.004003, 0.124929
0.224391, -0.008158, 0.039518
-0.640853, 0.075087, 0.134400
-0.562706, -0.118264, 0.361597
-0.473568, 0.045167, 0.129361
0.269382, -0.029048, 0.284810
0.249482, -0.009577, 0.275577
0.262814, -0.015496, 0.274577
0.429293, -0.082666, 0.172611
0.234777, -0.016168, 0.214573
0.283032, -0.009283, 0.313944
0.251755, -0.009671, 0.272318
0.232034, -0.017794, 0.212243
0.236486, -0.004982, 0.195715
0.236459, -0.004966, 0.211171
0.233908, -0.036803, 0.208369
0.261615, -0.009036, 0.259782
0.264233, -0.046534, 0.276996
0.251013, -0.009745, 0.272997
0.248536, -0.013132, 0.234654
0.209333, -0.001108, 0.188724
-0.264407, 0.038763, 0.063420
-0.256160, 0.018734, 0.026348
-0.190313, -0.020190, -0.022798
-0.282270, -0.045260, 0.024728
-0.085761, 0.015179, -0.728479
0.238510, -0.043485, 0.195482
0.250593, -0.027606, 0.196861
-0.164720, -0.053454, -0.138608
-0.006466, -0.006945, 0.039855
-0.148084, -0.060504, -0.011483
-0.102656, -0.007195, -0.023647
-0.141760, -0.050553, -0.017802
-0.132402, 0.012489, 0.019125
-0.196643, 0.018325, 0.025537
-0.180114, 0.025327, 0.024272
-0.104949, 0.039237, 0.102350
-0.093981, 0.049854, 0.001980
-0.143911, 0.034557, 0.046220
-0.168776, 0.040978, 0.094616
-0.245641, 0.025049, 0.058902
-0.163929, 0.010785, 0.019704
-0.643118, 0.023922, -0.110651
-0.081320, -0.008597, -0.054002
-0.236222, 0.019583, 0.038113
-0.265823, 0.042115, 0.067470
-0.199199, -0.040826, 0.022762
-0.504082, -0.105101, 0.032054
-0.259292, -0.032096, 0.014758
-0.313974, -0.039139, 0.120960
-0.093676, 0.050878, -0.024155
-0.432684, 0.005872, -0.035495
-0.362673, 0.008848, 0.041988
-0.122409, 0.030733, 0.144194
-0.313690, -0.116889, 0.038384
-0.264261, -0.114848, 0.006380
-0.269038, -0.116397, 0.004362
-1.033776, 0.089084, -0.026460
-0.284035, 0.040364, 0.118466
-0.345680, -0.125437, 0.044150
-0.395662, 0.036437, 0.052639
-0.147310, 0.023105, 0.042344
-0.137383, 0.024961, 0.027088
-0.122628, 0.010835, 0.058017
-0.084998, -0.076227, -0.035851
-0.140924, 0.017113, 0.036601
-0.236954, -0.117555, 0.025458
-0.364933, -0.002584, 0.215917
-0.435388, 0.051485, 0.170028
-0.251732, 0.010851, 0.157302
-0.249415, 0.009453, 0.153979
-0.531933, 0.088927, 0.163909
-0.304918, -0.000675, 0.146347
-0.311949, 0.016476, 0.131138
-0.419079, 0.024490, 0.155698
0.123540, -0.007952, 0.225161
0.144290, 0.009497, 0.223555
0.123280, -0.008454, 0.230740
0.123410, -0.009962, 0.226057
0.261285, -0.006003, 0.296099
0.243075, -0.005340, 0.294708
0.272011, -0.041122, 0.291496
0.127382, 0.026980, 0.120446
0.253129, -0.040728, 0.267992
0.017608, -0.003487, 0.016166
0.007931, 0.018126, 0.077598
0.019853, -0.000728, 0.023442
0.023692, -0.045319, 0.068954
0.024170, -0.010359, 0.006023
0.007829, 0.015247, 0.064271
0.022554, -0.002836, 0.010352
0.068557, -0.003686, 0.174259
0.089560, 0.008189, 0.226565
0.022204, 0.012891, 0.132564
0.005892, 0.025846, 0.077583
0.065885, -0.012893, 0.213083
-0.003083, 0.027539, 0.086406
0.000599, 0.025758, 0.092092
-0.334211, -0.033098, 0.064126
-0.245796, -0.030586, -0.004850
-0.495599, -0.037313, -0.039737
-0.274244, 0.045653, 0.092256
-0.334235, 0.036799, 0.126505
-0.318162, 0.045037, 0.108054
-0.306717, 0.014728, 0.048164
0.269207, -0.003988, 0.296801
0.249560, -0.012265, 0.342983
0.269547, -0.008468, 0.318789
0.260945, -0.027818, 0.268485
0.262218, -0.029621, 0.338303
0.254983, -0.013056, 0.346025
0.256755, -0.018152, 0.359206
0.263963, -0.014838, 0.346857
0.256058, -0.013997, 0.347392
0.269101, -0.015189, 0.353905
0.251648, -0.013803, 0.349089
0.277596, -0.029058, 0.330675
0.262594, -0.007318, 0.336948
0.276493, -0.015814, 0.348556
0.269407, -0.011964, 0.296426
0.277696, -0.017161, 0.323927
0.282963, -0.029676, 0.338237
0.265740, -0.027627, 0.314180
0.257692, -0.008562, 0.259715
0.267657, -0.033293, 0.305173
0.254351, -0.013605, 0.348594
0.271913, -0.031514, 0.325762
0.256486, -0.014840, 0.310113
0.231824, -0.014799, 0.333366
0.265665, -0.016613, 0.334334
0.231537, -0.008218, 0.209289
0.238825, -0.038546, 0.210125
0.236913, -0.035248, 0.208756
0.233292, -0.016341, 0.219168
0.221754, -0.004342, 0.212120
0.228969, -0.009643, 0.224736
0.232903, -0.027579, 0.193475
0.240894, -0.031466, 0.231158
0.245527, -0.015614, 0.238609
0.243410, -0.006927, 0.227974
0.242351, -0.065066, 0.232289
0.237552, -0.005814, 0.211061
0.235568, -0.005223, 0.210722
0.241571, -0.036478, 0.222121
0.278590, -0.031538, 0.324268
0.243549, -0.033435, 0.205674
0.243807, -0.015632, 0.240865
0.241366, -0.064634, 0.234126
0.271517, -0.027433, 0.307839
0.238541, -0.043889, 0.194135
0.229637, -0.007310, 0.205717
0.220891, -0.009123, 0.263133
0.241352, -0.033045, 0.206358
0.229785, -0.007878, 0.262802
0.231931, -0.042675, 0.195422
0.232701, -0.018138, 0.257011
0.246879, -0.068057, 0.234692
0.235481, -0.061421, 0.232758
0.239956, -0.007130, 0.235873
0.231902, -0.009803, 0.217712
0.242024, -0.040452, 0.227743
0.227323, -0.017152, 0.213400
0.231433, -0.016676, 0.210015
0.254165, -0.009388, 0.288875
0.264167, -0.002081, 0.288148
0.260959, -0.045083, 0.266166
0.224355, 0.010743, 0.278935
0.271622, -0.017998, 0.286804
0.271153, -0.029298, 0.289071
0.163047, 0.034312, 0.005669
0.236283, -0.016301, 0.251677
0.236739, -0.030930, 0.241179
0.228142, -0.009011, 0.209236
0.272989, -0.040567, 0.289072
0.157536, 0.024907, -0.036705
0.247628, -0.039982, 0.233129
0.267726, -0.029656, 0.295142
0.269420, -0.018538, 0.288796
0.267065, -0.045202, 0.280335
0.156718, 0.023397, -0.009584
0.261838, -0.040074, 0.292356
0.194760, -0.073447, 0.166278
0.241242, -0.014263, 0.242759
0.262014, -0.015330, 0.277461
0.267208, -0.019313, 0.292607
0.147767, 0.010566, -0.043501
0.255931, -0.048331, 0.254391
0.266587, -0.026526, 0.271879
0.240086, -0.014580, 0.205107
0.268337, -0.013957, 0.289604
0.256071, -0.037062, 0.240526
0.256472, -0.009473, 0.272987
0.258958, -0.025696, 0.289211
0.255838, -0.034862, 0.225673
0.264283, -0.038199, 0.269311
0.268457, -0.043894, 0.280217
0.266075, -0.042404, 0.279732
0.267588, -0.042803, 0.277848
0.235422, -0.019150, 0.253910
0.266417, -0.016628, 0.284662
0.274915, -0.018142, 0.293545
0.273854, -0.033136, 0.300816
-0.147407, 0.018962, 0.100000
-0.289122, -0.119785, 0.113610
-0.140868, 0.045292, 0.020748
-0.332077, 0.014433, 0.117279
-0.106012, 0.032791, 0.185621
-0.293854, -0.020231, 0.127705
-0.092819, -0.067826, -0.043639
-0.486706, -0.074426, 0.107269
-0.362900, -0.135945, 0.121128
-0.221380, 0.004871, 0.063612
-0.233825, -0.104282, 0.118905
-0.082763, -0.008422, -0.044749
-0.096707, 0.038636, 0.139762
-0.106074, 0.028396, 0.126257
-0.092486, 0.034956, 0.188589
-0.369040, -0.096927, 0.117850
-0.121372, 0.045804, 0.061581
-0.264610, 0.001724, 0.184051
-0.187156, 0.014979, 0.111999
-0.288882, 0.008299, 0.145461
-0.313491, -0.007684, 0.122442
-0.141737, 0.036684, 0.042813
-0.122422, 0.045877, 0.061104
-0.197255, 0.023453, 0.140913
-0.122034, -0.025095, -0.004677
-0.537682, -0.170911, 0.035109
-0.223027, -0.115992, 0.059446
-0.501270, -0.127636, 0.080861
-0.042722, -0.009305, 0.156303
-0.195731, -0.096442, 0.038003
-0.336195, -0.061598, 0.040811
-0.155150, 0.049082, 0.049779
-0.495251, -0.117902, 0.048330
-0.157465, 0.010772, 0.015575
-0.218671, 0.036574, 0.063679
-0.214557, 0.027227, 0.128345
-0.527677, -0.077541, 0.161975
-0.278622, -0.104479, 0.115084
-0.148608, 0.039668, 0.115980
-0.244096, 0.032725, 0.076687
0.033579, -0.013070, 0.182966
0.102361, -0.000827, 0.151424
-0.018862, -0.026806, 0.208987
-0.126105, 0.007635, 0.181190
-0.107465, 0.029130, 0.185156
-0.113858, 0.011379, 0.179588
-0.110119, -0.011138, 0.214430
-0.110675, 0.027234, 0.217744
-0.102535, 0.001099, 0.209048
-0.100505, -0.008524, 0.216940
-0.095511, 0.033788, 0.192921
-0.104302, -0.006646, 0.215089
-0.083822, 0.034101, 0.178765
-0.089967, 0.001718, 0.214096
-0.121992, 0.024558, 0.221402
-0.103410, 0.022511, 0.205130
-0.135999, 0.029728, 0.152454
-0.285047, 0.012910, 0.064210
-0.133579, 0.020115, 0.183724
-0.090154, 0.008115, 0.177933
-0.108987, 0.021598, 0.179204
-0.097685, 0.038949, 0.016095
-0.102309, 0.039937, 0.185912
-0.163433, 0.033754, 0.113955
-0.123930, 0.023305, 0.191968
-0.106958, 0.012456, 0.184543
-0.132887, 0.016361, 0.017596
-0.187158, -0.034594, -0.016542
-0.177556, -0.048491, -0.012866
-0.150566, -0.026919, -0.023557
-0.419721, 0.018421, -0.007485
-0.790872, -0.242824, 0.004637
-0.196603, -0.037565, -0.013363
-0.157151, -0.033966, -0.028931
-0.340937, 0.037872, 0.100810
-0.236961, -0.029275, 0.001500
-0.198085, -0.037727, -0.015438
-0.251485, -0.038273, -0.004324
-0.672921, -0.137552, 0.001816
-0.138059, -0.024085, -0.028141
-0.674727, -0.116283, 0.021368
-0.201439, -0.048242, -0.011119
-0.202466, -0.028164, -0.012350
-0.200952, 0.027574, 0.025920
-0.118608, 0.016521, 0.002032
-0.318072, 0.027756, 0.080961
-0.183924, 0.025724, 0.091749
-0.200482, 0.022460, 0.087262
-0.532018, -0.002218, 0.062659
-0.144785, -0.040008, -0.025675
-0.204526, 0.010803, 0.011712
-0.160922, -0.031515, -0.035566
-0.253170, 0.034261, 0.061758
-0.177250, 0.016800, 0.011902
-0.265726, 0.015839, 0.054262
-0.237088, 0.026436, 0.029403
-0.264746, 0.046200, 0.066842
-0.215499, 0.009737, 0.012773
-0.183393, 0.014666, 0.005620
-0.139735, -0.028689, -0.025659
-0.201280, 0.023791, 0.028082
-0.144018, -0.044666, -0.026884
-0.263377, -0.022483, 0.010587
-0.139926, -0.028766, -0.025901
-0.950573, -0.186391, 0.005367
-0.127919, 0.011543, 0.010357
-0.650182, -0.139090, 0.058757
-0.547618, -0.124828, 0.027934
-0.211778, 0.028419, 0.031298
0.097584, 0.012715, 0.182310
0.159345, -0.080092, 0.238188
-0.003311, 0.012116, 0.106223
-0.295604, 0.014793, 0.174215
-0.576177, -0.002696, 0.177282
-0.130954, 0.050762, 0.024571
-0.144791, -0.050848, -0.022781
-0.123285, 0.015638, 0.023490
-0.186888, 0.016555, 0.125642
-0.243552, 0.017980, 0.117424
-0.128282, 0.009306, -0.009083
-0.191963, 0.028453, 0.089564
-0.301029, -0.007101, 0.128334
-0.390338, -0.053212, 0.063587
-0.108502, 0.013299, 0.032289
-0.349632, 0.030083, 0.072590
-0.213803, 0.013333, 0.062208
-0.695995, 0.040732, 0.072213
-0.280821, 0.008747, 0.125397
-0.116738, 0.013446, 0.000801
-0.337866, 0.020394, 0.015566
-0.945655, -0.185522, 0.318191
-0.918746, -0.041679, 0.306843
-0.620262, -0.185286, 0.176470
-0.390335, -0.007256, 0.154384
-0.298119, 0.005748, 0.142234
-0.359398, -0.004779, 0.130743
-0.389119, 0.046881, 0.094616
-0.563512, -0.016181, 0.247465
-0.442284, 0.035535, 0.135840
-0.429581, 0.063691, 0.149750
-0.358648, -0.060559, 0.129107
-0.446281, -0.031344, 0.202463
-0.444918, 0.037885, 0.124913
-0.193588, -0.000468, 0.218580
-0.331045, -0.023287, 0.213961
-0.194874, 0.005837, 0.182989
-0.157908, 0.018920, 0.133129
-0.050326, 0.061306, -0.031232
-0.015024, 0.038839, -0.010860
-0.002506, 0.026348, -0.040547
-0.039898, 0.046623, -0.065847
-0.085045, 0.034187, 0.181987
-0.145327, 0.035814, 0.221974
-0.000914, 0.020232, -0.036482
-0.011582, 0.028282, -0.052484
-0.116283, 0.029083, 0.215852
-0.034833, 0.052584, 0.053607
-0.009517, 0.011396, -0.030198
-0.107892, 0.056343, -0.059276
-0.077661, 0.019554, -0.027272
-0.018362, -0.000029, -0.060744
-0.028189, 0.019172, -0.048181
-0.014594, 0.025567, -0.030086
-0.218003, 0.002487, 0.145029
-0.113119, 0.038997, 0.204134
-0.295011, -0.119807, 0.111084
-0.145876, -0.052141, -0.022603
-0.138705, -0.038545, -0.018612
-0.290112, 0.026578, 0.059338
-0.133424, 0.031451, 0.022628
-0.110114, 0.032357, 0.021188
-0.053091, 0.059125, -0.041126
-0.160122, 0.035314, 0.095416
-0.183342, 0.036838, 0.096930
-0.183367, 0.030472, 0.149503
-0.148729, -0.058820, -0.016998
-0.157946, -0.058968, -0.018263
-0.139407, -0.026059, -0.018922
-0.189110, 0.017477, 0.126238
-0.098806, -0.039921, 0.021674
-0.115157, 0.019156, 0.007026
-0.420804, -0.020166, 0.099189
-0.172530, 0.031297, 0.133186
-0.258936, 0.028947, 0.164496
-0.236409, -0.050891, 0.011626
-0.109643, 0.012684, 0.016099
-0.248419, 0.016588, 0.030641
-0.125083, 0.008648, 0.005880
-0.156702, -0.056262, -0.020333
-0.423531, 0.024796, -0.951743
-0.006265, 0.036759, -0.038390
-0.063326, 0.053499, -0.052779
0.075232, 0.017687, 0.109835
0.071894, 0.021176, -0.078826
0.123860, 0.009513, 0.109719
0.109219, 0.009123, 0.107758
0.105641, 0.012061, 0.147908
0.100508, 0.010002, 0.096087
0.086437, 0.022632, 0.055644
0.100289, 0.015810, 0.143855
-0.255805, 0.014496, 0.189093
-0.494575, 0.077091, 0.048159
-0.328456, 0.026237, 0.162531
-0.395331, 0.038216, 0.157657
-0.306226, 0.008435, 0.135785
-0.397157, 0.060211, 0.113167
-0.307276, 0.018879, 0.129961
-0.310874, 0.024144, 0.125224
-0.371345, 0.049278, 0.102476
-0.326066, -0.026421, 0.043814
-0.361542, -0.055423, 0.010080
-0.334247, -0.027052, 0.039466
-0.373257, 0.006010, 0.131063
-0.298664, -0.022875, 0.049479
-0.721750, 0.081497, 0.120267
-0.291745, 0.004694, 0.150954
-1.048788, 0.235020, -0.040536
-0.355005, -0.055135, 0.127299
-0.354333, 0.041169, 0.116356
-0.369675, 0.035924, 0.073063
-0.479355, 0.033393, 0.145460
-0.485919, 0.056837, 0.147357
-0.307186, 0.017571, 0.163752
-0.437571, -0.087209, 0.142017
-0.426841, -0.011436, 0.135516
-0.562643, 0.051929, 0.215583
-0.590143, 0.042078, 0.165266
-0.412636, 0.055478, 0.160635
-0.299282, 0.006331, 0.134289
-0.380554, 0.015262, 0.151561
-0.392970, -0.073057, 0.136859
-0.526154, -0.006139, 0.161888
-0.514185, 0.066245, 0.165883
-0.429148, 0.023671, 0.183796
-0.202627, 0.021288, 0.019488
-0.157676, -0.028564, -0.024529
-0.158810, -0.036049, -0.029269
-0.253497, -0.011072, 0.053721
-0.322327, 0.023678, 0.059821
-0.190492, -0.035379, -0.019909
-0.246173, 0.011700, 0.020254
-0.242414, 0.010904, 0.009875
-0.255675, 0.020498, 0.060652
-0.294142, 0.021839, 0.040142
-0.262994, 0.053058, 0.058998
-0.040861, 0.044544, 0.100932
-0.111444, 0.029011, 0.181371
-0.092196, 0.037485, 0.165145
-0.007538, 0.025212, -0.029603
-0.004325, 0.051998, 0.007048
-0.068670, -0.064819, -0.050772
-0.048360, 0.037547, -0.057879
-0.109914, 0.007907, 0.183179
-0.006674, 0.031601, -0.029903
-0.130643, 0.036236, 0.205500
-0.009013, 0.016392, -0.036042
-0.003884, 0.041758, -0.048765
-0.103558, 0.013380, 0.183594
-0.177946, -0.069108, -0.150253
-0.152700, 0.041010, 0.115399
0.048072, 0.014603, -0.007347
-0.050693, 0.024656, -0.057907
-0.041301, -0.040613, -0.077605
0.137939, 0.057228, -0.024129
-0.154041, -0.016171, -0.120220
0.098881, 0.007753, 0.131939
0.132329, 0.057437, 0.056921
0.081299, 0.020195, -0.019165
-0.070978, -0.097056, -0.065908
0.209335, 0.023979, -0.067458
-0.041653, 0.019422, -0.044186
0.113029, 0.015650, 0.032453
-0.084870, -0.084199, -0.087868
0.177992, 0.056013, 0.048095
-0.059777, -0.085618, -0.062825
-0.011856, 0.000088, -0.061056
0.132516, 0.001541, 0.131537
0.055689, 0.028003, 0.099336
0.109714, 0.049132, 0.047344
0.117899, 0.015661, 0.103045
0.091451, 0.010148, 0.119963
-0.272591, 0.008224, 0.123344
-0.256199, 0.020629, 0.155955
-0.315584, -0.006712, 0.206228
-0.283078, 0.012511, 0.149493
-0.333813, 0.045699, 0.135992
-0.268288, 0.014890, 0.118160
-0.287560, -0.002682, 0.167421
-0.297349, -0.065005, 0.191030
-0.267833, 0.014499, 0.146410
-0.274506, 0.026184, 0.150890
-0.028713, 0.041013, -0.045424
0.008387, 0.048806, 0.060638
-0.029937, 0.012098, -0.047301
-0.007311, 0.017249, -0.023597
0.001718, 0.005178, -0.037308
-0.006834, 0.020164, -0.032720
-0.030245, 0.023247, -0.061300
-0.110380, 0.034402, 0.182205
-0.169233, 0.030034, 0.236150
-0.051834, 0.047442, -0.037850
-0.179026, 0.014779, 0.129718
-0.092941, 0.001982, 0.178841
-0.446164, -0.088795, 0.199592
-0.112981, 0.035047, 0.196373
-0.106026, 0.020407, 0.190402
-0.122830, -0.006569, 0.221996
-0.112927, 0.027254, 0.220959
-0.099286, 0.031459, 0.215495
0.120775, 0.015421, 0.067686
0.103912, 0.021725, 0.118798
-0.082662, 0.039687, -0.029912
0.110932, 0.017042, 0.120438
-0.007599, 0.026342, -0.029288
0.124151, 0.075743, -0.056061
0.072758, 0.026968, 0.018142
0.113756, 0.022768, 0.077917
0.017010, 0.033391, 0.024320
0.056880, 0.019064, 0.064212
0.038421, -0.093842, -0.067165
-0.387021, -0.081043, 0.146787
-0.073380, 0.046038, -0.054746
-0.343870, -0.046135, 0.062862
-0.181627, 0.013811, 0.013435
-0.276851, -0.024708, 0.044441
-0.253115, 0.046510, 0.061701
-0.171286, -0.048806, -0.010860
-0.422704, 0.031777, 0.038861
-0.287005, 0.002455, 0.140306
-0.178796, 0.039791, 0.147746
-0.185107, 0.015978, 0.029097
-0.440778, -0.098166, -0.017177
-0.310177, 0.010812, 0.125990
-0.218847, -0.052091, 0.003226
-0.159875, 0.018316, 0.031524
-0.169454, 0.035280, 0.144899
-0.122044, 0.008924, 0.000291
-0.310296, -0.078615, 0.123715
-0.310187, -0.076472, 0.122121
-0.211259, 0.013667, 0.026401
-0.268688, -0.007920, 0.011248
-0.247125, -0.021543, 0.008241
-0.133062, -0.052017, -0.023942
-0.110553, -0.013852, -0.025705
-0.106062, -0.019746, -0.026582
-0.079006, -0.000628, -0.035015
-0.290713, -0.085887, -0.003114
-0.185215, 0.045026, 0.059354
-0.316528, -0.006015, 0.228868
-0.091290, 0.036088, 0.190877
-0.058075, 0.002941, -0.064306
-0.112601, -0.078728, -0.079747
-0.151045, -0.010394, -0.054299
-0.150839, -0.007049, 0.184189
-0.199269, 0.041811, 0.144411
0.009316, 0.024501, 0.011315
-0.408628, -0.157510, 0.262257
-0.119194, 0.010481, 0.186818
-0.145039, 0.034978, 0.163332
-0.351187, 0.071994, 0.070202
-0.183483, 0.022408, 0.139723
-0.078706, 0.041617, -0.043021
-0.051881, 0.052070, -0.052706
-0.009360, 0.002602, -0.026893
-0.036893, 0.032959, -0.041914
0.054119, 0.006862, 0.004989
0.052109, 0.011841, -0.003772
-0.054039, -0.007557, -0.057018
-0.067714, -0.012806, -0.042315
0.190665, -0.039092, 0.012086
-0.036021, 0.034758, -0.038237
0.138570, 0.056210, 0.033707
0.066615, -0.075650, -0.011775
0.095401, 0.022570, -0.014933
-0.752972, -0.137901, 0.035008
-0.271072, 0.014980, 0.130109
-0.343236, -0.024933, -0.018116
-0.328784, -0.051552, 0.174788
-0.537073, -0.094039, 0.318959
-0.776465, -0.243093, 0.219359
-0.530459, -0.143145, -0.028949
-0.439976, 0.092722, 0.270567
-0.288174, 0.010116, 0.163398
-0.451767, 0.041503, 0.122025
-0.302973, 0.006905, 0.139368
-0.578876, 0.017757, 0.141404
-0.296415, 0.002693, 0.109450
-0.552536, -0.022279, 0.271991
-0.422814, -0.041434, 0.154778
-0.361410, -0.022888, 0.132813
-0.854695, -0.212730, 0.157038
-0.347134, 0.024556, 0.114555
-0.733254, -0.041990, 0.042762
-0.595884, -0.192997, 0.395765
-0.291532, -0.007758, 0.193570
-0.417695, -0.022091, 0.153800
-0.406831, 0.036388, 0.152635
-0.484561, 0.034448, 0.130527
-0.453755, 0.038541, 0.150348
-0.582573, -0.224511, 0.441245
-0.522172, -0.042542, 0.216415
-0.654690, -0.181945, 0.434020
-0.430602, 0.034607, 0.120615
-0.325348, 0.017151, 0.117051
-0.186878, 0.012473, 0.109622
-0.191596, 0.013791, 0.112894
-0.279702, 0.018863, 0.139481
-0.125071, 0.024941, 0.019669
-0.192982, 0.026269, 0.033647
-0.203626, 0.029580, 0.040163
-0.259665, -0.001877, 0.119574
-0.122894, 0.022567, 0.009202
-0.151959, 0.028892, 0.015887
-0.146035, 0.028389, 0.023090
-0.098636, 0.052797, 0.023594
-0.082293, 0.045116, -0.034409
-0.137220, -0.019023, -0.017675
-0.174012, -0.016875, -0.011090
-0.143486, -0.050090, -0.021823
-0.184932, -0.027808, -0.007913
-0.114919, 0.019025, 0.009029
-0.133293, 0.011604, 0.018479
-0.113921, 0.021285, 0.013544
-0.139233, -0.056079, -0.027079
-0.147467, 0.026775, 0.020088
-0.150734, 0.039310, 0.138161
-0.099005, 0.053075, 0.023300
-0.233016, -0.046687, 0.000565
-0.106034, 0.033006, 0.020843
-0.337258, -0.038119, 0.122078
-0.218649, 0.012616, 0.126827
-0.406247, -0.010944, 0.136150
-0.473434, 0.063298, 0.062870
-0.320841, -0.031500, 0.067075
-0.623956, 0.019694, 0.145352
-0.585913, -0.093404, 0.111572
-0.666520, -0.091864, 0.098602
-0.579440, -0.056333, 0.116244
-1.024814, 0.053916, 0.021698
-0.335978, 0.024852, 0.076757
-0.251797, -0.018794, 0.052077
-0.345875, -0.003656, 0.031902
-0.255786, 0.018690, 0.027776
-0.290061, 0.010591, 0.065164
-0.389575, 0.009685, 0.006469
-0.168608, 0.002672, 0.034413
-0.572120, 0.031488, -0.058723
-0.158309, -0.032849, -0.027047
-0.188629, -0.034953, -0.018008
-0.127930, 0.014270, 0.007773
-0.352522, -0.000331, 0.004962
-0.336235, 0.046057, 0.070309
-0.162855, 0.010422, 0.101340
-0.125312, 0.018596, 0.025992
-0.132875, 0.032600, 0.017600
-0.133832, 0.054052, 0.043789
-0.110199, 0.019669, 0.007159
-0.113639, 0.024857, 0.008942
-0.275441, 0.008361, 0.148286
-0.145509, -0.027725, -0.018779
-0.289555, -0.004609, 0.151548
-0.154246, 0.039839, 0.121125
-0.174294, 0.043390, 0.094236
-0.135167, 0.048925, 0.028281
-0.107460, 0.042917, -0.015041
-0.160604, -0.017535, -0.011334
-0.079942, 0.027258, -0.031596
-0.285951, 0.003631, 0.162170
-0.113857, 0.035209, -0.001086
-0.158726, 0.030070, 0.109967
-0.114195, 0.035898, -0.001515
-0.122513, 0.012583, -0.009373
-0.099689, 0.048826, 0.014151
-0.144839, 0.051019, 0.016656
-0.162522, 0.017116, 0.014026
-0.123509, 0.042566, 0.036358
-0.122222, 0.015101, 0.024285
-0.188431, 0.014302, 0.108606
-0.148358, 0.025924, 0.132417
-0.168067, 0.041012, 0.111571
-0.324625, -0.038929, 0.120328
-0.082085, 0.038663, -0.033442
-0.135219, 0.036456, 0.023656
-0.162270, 0.041557, 0.121444
-0.105922, 0.061903, -0.016658
-0.380120, -0.076705, 0.133572
-0.166810, 0.039212, 0.150633
-0.311231, 0.018010, 0.106799
-0.165570, 0.039634, 0.149976
-0.280541, -0.033371, 0.112221
-0.150679, 0.048701, 0.041698
-0.282349, 0.018156, 0.071412
-0.107357, 0.041604, -0.015494
-0.173719, 0.024495, 0.114765
-0.495774, -0.011322, 0.041391
-0.107512, 0.031257, 0.008319
-0.373901, -0.035127, 0.083711
-0.292011, 0.010704, 0.121453
-0.184401, 0.018587, 0.128569
-0.162671, 0.021980, 0.115692
-0.169580, 0.029210, 0.141490
-0.417757, -0.026886, 0.038597
-0.115294, 0.035224, -0.003094
-0.220108, 0.035839, 0.061482
-0.513125, -0.132404, 0.196210
-0.276851, 0.016574, 0.118026
-0.347809, 0.029740, 0.097541
-0.186718, 0.018563, 0.116858
-0.159353, 0.018354, 0.031154
-0.102486, 0.055776, 0.005327
-0.138499, -0.025612, -0.023760
-0.653083, -0.014316, 0.197512
-0.277352, 0.031299, 0.065997
-0.145030, 0.038803, 0.105808
-0.120245, 0.045768, 0.065089
-0.128815, 0.016784, 0.024408
-0.156415, 0.040929, 0.126797
-0.178204, 0.037702, 0.146359
-0.344212, -0.055767, 0.116842
-0.405354, 0.038961, 0.095130
-0.106082, -0.009054, -0.025327
-0.137082, 0.010313, 0.010358
-0.233970, 0.003424, 0.148914
-0.132465, 0.020889, 0.025430
-0.106447, 0.036920, 0.021558
-0.123381, 0.050172, 0.031907
-0.189548, 0.048537, 0.048359
-0.169750, 0.026946, 0.144666
-0.129188, 0.046258, 0.063905
-0.146032, 0.048710, 0.053090
-0.184732, 0.040586, 0.094023
-0.164127, 0.044264, 0.080038
-0.137367, 0.034985, 0.013426
-0.115726, 0.030745, 0.008093
-0.128605, 0.042959, 0.021485
-0.111959, 0.042064, 0.031223
-0.095280, 0.035411, -0.014184
-0.141563, -0.037022, -0.023715
-0.108574, -0.006971, -0.033085
-0.324073, 0.031939, 0.093836
-0.115739, -0.007227, -0.025119
-0.097212, 0.055118, -0.029431
-0.154052, 0.026442, 0.037235
-0.126697, 0.015990, 0.025973
-0.274944, 0.020767, 0.162844
-0.184174, 0.016333, 0.125555
-0.186795, 0.018800, 0.113524
-0.317984, 0.027879, 0.180670
-0.170950, 0.022492, 0.130357
-0.177863, 0.029151, 0.093919
-0.145986, 0.025975, 0.103136
-0.117430, 0.029336, 0.017561
-0.115176, 0.036232, -0.021187
-0.095542, 0.034323, -0.013736
-0.145113, 0.042457, 0.106188
-0.277994, -0.005094, 0.149325
-0.129890, 0.048134, 0.058306
-0.142040, 0.049578, 0.025354
-0.181239, 0.029908, 0.148614
-0.115020, 0.014442, -0.003967
-0.170597, 0.034875, 0.091044
-0.162114, 0.020512, 0.128608
-0.209786, 0.024088, 0.117806
-0.279550, 0.038313, 0.195698
-0.284562, 0.036293, 0.161676
-0.261265, 0.028087, 0.156121
-0.268943, 0.024188, 0.181744
-0.262506, 0.015224, 0.184353
-0.271631, 0.024256, 0.144311
-0.274569, 0.019577, 0.130197
-0.279762, 0.019251, 0.123571
-0.269107, 0.024557, 0.182102
0.185728, -0.104151, 0.276778
0.141780, -0.013831, 0.303171
0.015925, 0.015504, 0.097861
0.005449, 0.016371, 0.078914
0.125299, -0.022787, 0.209534
0.376377, 0.023306, -0.145766
0.077511, -0.018454, 0.223340
-0.296205, -0.004756, 0.175378
-0.358247, -0.009809, 0.135719
-0.417424, 0.064308, 0.182504
-0.557772, 0.020229, 0.176682
-0.444337, 0.044135, 0.171559
-0.417782, 0.049456, 0.184529
-0.291465, 0.018099, 0.161061
-0.604060, -0.024210, 0.098779
-0.708322, 0.090366, 0.100828
-0.436447, 0.041031, 0.174716
-0.454422, 0.064531, 0.152792
-0.666853, -0.016585, 0.369755
-0.598436, -0.216466, 0.417847
-0.256438, 0.010308, 0.154079
-0.301646, 0.011541, 0.126123
-0.372751, 0.025766, 0.139051
-0.304698, 0.003112, 0.139559
-0.479318, 0.023182, 0.149913
-0.266210, 0.014992, 0.140858
-0.363832, 0.035801, 0.106951
-0.426167, 0.035511, 0.117844
-0.323272, 0.050623, 0.097841
-0.621767, 0.083239, 0.070573
-0.293136, 0.035596, 0.124023
-0.379028, 0.039661, 0.082077
-0.576136, -0.074725, 0.075484
-0.320336, 0.005255, 0.119593
-0.306561, 0.013502, 0.043592
-0.281042, -0.025492, 0.047640
-0.272883, 0.017250, 0.125869
-0.274834, -0.016281, 0.050036
-0.384241, -0.031331, 0.073054
-0.435602, 0.037663, 0.113077
-0.389501, 0.027123, 0.123277
-0.303045, 0.044001, 0.067819
-0.139802, 0.011205, -0.009851
-0.249711, 0.043190, 0.059412
-0.212724, 0.032321, 0.043356
-0.342645, -0.033825, 0.107080
-0.167430, 0.019736, 0.003230
-0.155541, -0.041217, -0.025209
-0.128011, 0.012760, 0.006060
-0.144285, -0.030327, -0.025307
-0.192945, 0.026396, 0.042437
-0.174762, 0.030341, 0.023511
-0.320008, 0.012274, 0.126533
-0.149788, 0.037470, 0.141336
-0.095097, 0.032276, 0.003513
-0.377770, -0.120745, 0.166133
-0.368980, 0.020866, -0.013000
-0.179298, 0.025513, 0.103098
-0.073045, -0.036631, -0.054586
-0.072654, -0.001026, -0.050365
-0.225219, 0.003546, 0.156496
-0.178816, 0.018583, 0.113811
-0.235273, 0.008760, 0.137678
-0.140144, 0.042047, 0.104858
-0.340236, 0.024604, 0.084943
-0.142067, 0.025523, 0.102724
-0.181864, 0.030093, 0.049703
-0.287864, -0.073925, 0.110983
-0.333002, 0.004400, 0.192592
-0.267878, 0.014253, 0.146284
0.150379, -0.045054, 0.223658
0.235593, -0.024604, 0.250583
-0.285981, 0.002523, 0.060174
-0.286954, 0.014668, 0.127569
-0.336483, 0.031053, 0.116207
-0.325775, 0.032191, 0.041458
-0.342141, -0.002973, 0.178346
-0.299532, -0.006745, 0.200628
-0.323031, -0.026291, 0.027933
-0.299702, 0.018864, 0.143462
-0.201110, 0.016781, 0.025673
-0.435957, -0.063703, 0.050390
-0.847900, 0.011454, 0.039740
-0.332388, -0.033653, 0.110605
-0.134318, 0.020355, 0.019685
-0.134417, 0.017982, 0.015101
-0.155292, -0.036212, -0.022981
-0.143088, -0.024370, -0.026523
-0.148536, -0.025367, -0.025950
-0.274668, -0.026646, 0.049654
-0.203922, 0.018973, 0.030080
-0.182866, 0.020400, -0.018308
-0.181638, -0.016318, -0.019335
-0.199853, 0.024048, 0.086758
-0.172320, 0.014991, 0.000440
-0.158546, 0.010574, 0.005811
-0.154997, 0.031219, 0.013714
-0.161245, -0.044100, -0.023021
-0.197004, 0.024241, 0.025587
-0.515071, -0.003434, 0.183746
-0.206427, 0.019982, 0.029336
-0.358691, 0.036326, 0.109528
